# .PCD v0.7 - Point Cloud Data file format
VERSION 0.7
FIELDS x y z
SIZE 4 4 4
TYPE F F F
COUNT 1 1 1
WIDTH 1521
HEIGHT 1
VIEWPOINT 0 0 0 1 0 0 0
POINTS 1521
DATA ascii
-0.8263315 2.6646857 3.0838046
-0.77142429 2.6704638 3.0840743
-0.71890843 2.6707199 3.0843651
-0.66201073 2.6749072 3.0846558
-0.60428739 2.6779816 3.0849581
-0.54788375 2.6772168 3.0852768
-0.48810312 2.6786406 3.0856009
-0.42748541 2.6789358 3.0859363
-0.36603063 2.678102 3.0862837
-0.30420351 2.6756113 3.0866432
-0.24060985 2.673049 3.087013
-2.423578 2.7217505 3.0745595
-2.3871517 2.7023373 3.0748827
-2.329474 2.7225914 3.075078
-2.2722762 2.744087 3.075263
-2.2243323 2.7140019 3.0757167
-2.1696632 2.7365382 3.0758812
-2.1209219 2.7329524 3.0761747
-2.0737786 2.7294846 3.0764587
-2.0275135 2.7288847 3.07672
-1.9714427 2.7147658 3.0771196
-1.9216546 2.7396605 3.0772426
-1.8860135 2.7166021 3.0775838
-1.8288684 2.7270107 3.0778375
-1.778177 2.7218127 3.0781519
-1.7293495 2.7178795 3.0784481
-1.6771698 2.7283926 3.0786734
-1.6311945 2.7255516 3.0789471
-1.5764812 2.718904 3.0792928
-1.5250635 2.7241998 3.079546
-1.4839089 2.7353308 3.0797057
-1.4243424 2.7187884 3.0801401
-1.3828976 2.7273879 3.0803175
-1.3285865 2.7195723 3.0806682
-1.2876625 2.7219009 3.0808816
-1.2405877 2.7341473 3.0810676
-1.18521 2.7194633 3.0814672
-1.1361039 2.7299542 3.0816755
-1.0780061 2.7141902 3.0820966
-1.0268154 2.7228794 3.0823276
-0.97990876 2.7249107 3.0825763
-0.9277426 2.7333207 3.0828142
-0.87477297 2.7406476 3.0830638
-0.82436335 2.7418482 3.0833371
-0.78367507 2.7268913 3.0836563
-0.74257946 2.7113853 3.083981
-0.68925565 2.7116451 3.0842764
-0.63194513 2.715276 3.0845728
-0.57380903 2.7177935 3.0848808
-0.51656348 2.7170172 3.0852044
-0.45636433 2.7178767 3.0855341
-0.3953281 2.7176075 3.0858755
-0.33345479 2.7162097 3.0862286
-0.27074441 2.7136831 3.0865934
-2.3823519 2.7521846 3.0746002
-2.323606 2.772814 3.0747993
-2.265475 2.793787 3.0749927
-2.2165174 2.7640653 3.0754495
-2.1609962 2.7861011 3.0756221
-2.1306076 2.7682474 3.075902
-2.0777493 2.7877858 3.0760751
-2.0355349 2.7617574 3.0764716
-1.9845679 2.7830825 3.076623
-1.9275591 2.7720335 3.0770087
-1.8724363 2.764924 3.0773597
-1.8142707 2.7755184 3.0776179
-1.7811933 2.7530677 3.0779412
-1.7236522 2.7724285 3.0781417
-1.6601667 2.7760735 3.0784721
-1.6316228 2.7557502 3.0787573
-1.5774398 2.7769592 3.0789275
-1.537246 2.7557089 3.0792828
-1.4749087 2.7856021 3.0794444
-1.4153452 2.7804863 3.0798073
-1.3616605 2.7730486 3.0801525
-1.3186843 2.7809849 3.0803423
-1.2650179 2.7670896 3.0807273
-1.2175425 2.778796 3.080919
-1.1738336 2.7808297 3.0811498
-1.1245246 2.7910471 3.0813608
-1.0758382 2.75719 3.0818419
-1.0011086 2.7659318 3.0822036
-0.95345747 2.7679954 3.0824564
-0.90088952 2.7758636 3.0827
-0.84751809 2.7826486 3.0829549
-0.79633296 2.7838678 3.0832324
-0.72737658 2.7707016 3.0836978
-0.67224628 2.7728992 3.0839911
-0.61591482 2.77457 3.0842943
-0.57181394 2.7960131 3.0844066
-0.52809143 2.7775116 3.084765
-0.46958315 2.7767181 3.0850954
-0.42462555 2.757113 3.0854673
-0.37802878 2.7763143 3.0856075
-0.31594622 2.7746341 3.0859637
-2.2792869 2.8282702 3.0747018
-2.2249722 2.8236873 3.0750327
-2.1723809 2.820117 3.0753479
-2.121398 2.8174915 3.0756476
-2.067596 2.837379 3.0758238
-2.0246277 2.8108854 3.0762274
-1.9728522 2.8321552 3.0763836
-1.9339055 2.804692 3.0767708
-1.8833447 2.829087 3.076901
-1.8289576 2.8186183 3.0772686
-1.7683618 2.8222463 3.0775838
-1.7182143 2.8271532 3.0778322
-1.6699114 2.8183024 3.078156
-1.6237175 2.8099089 3.0784655
-1.5684054 2.8303137 3.0786467
-1.5298028 2.8065748 3.0790086
-1.4773333 2.8402381 3.0790918
-1.4338046 2.8236072 3.079437
-1.3724654 2.8334115 3.0797176
-1.3091776 2.8429306 3.0800111
-1.2846613 2.8098722 3.0803525
-1.2423732 2.8122783 3.0805731
-1.1722904 2.8244779 3.0808876
-1.1003689 2.8351815 3.0812216
-1.0744044 2.8001704 3.0815833
-1.026459 2.8300571 3.081665
-0.97540194 2.808984 3.0820799
-0.92700619 2.81108 3.0823362
-0.87403643 2.8184066 3.0825856
-0.82026321 2.8246498 3.0828462
-0.76830256 2.8258872 3.0831277
-0.71258098 2.8305674 3.0834088
-0.6560449 2.8341491 3.0837014
-0.60029727 2.8344207 3.0840101
-0.54174834 2.8363817 3.0843236
-0.48237383 2.8372295 3.0846488
-0.42260277 2.8364189 3.0849867
-0.361148 2.8355854 3.0853341
-2.2174478 2.8739214 3.0747631
-2.1843271 2.8544629 3.0750682
-2.1279254 2.8759813 3.0752487
-2.0723369 2.8961554 3.075433
-2.0281343 2.868901 3.0758481
-1.9744194 2.8916347 3.0760059
-1.9346302 2.8622668 3.0764098
-1.8701895 2.8776822 3.076673
-1.8330164 2.8536325 3.0770288
-1.7850753 2.8725338 3.0771785
-1.7244958 2.8898323 3.0774086
-1.6810868 2.8603692 3.0778327
-1.6261609 2.8714352 3.0780702
-1.5785354 2.8773842 3.0782983
-1.5318906 2.8641021 3.0786405
-1.4694149 2.8909225 3.0788217
-1.4248023 2.8738775 3.0791755
-1.374312 2.8728166 3.079463
-1.329195 2.8858099 3.0796337
-1.2751546 2.8718178 3.0800214
-1.2197286 2.8574669 3.0804188
-1.1714523 2.8680933 3.0806217
-1.1263334 2.8701928 3.0808599
-1.0762131 2.8793159 3.0810823
-1.0252813 2.8873451 3.081316
-0.97682339 2.8886168 3.081578
-0.92474622 2.8670967 3.0820014
-0.87410361 2.8972492 3.0820963
-0.84718341 2.8609493 3.0824711
-0.79300833 2.8666508 3.0827374
-0.7402721 2.8679068 3.0830231
-0.6841433 2.8720376 3.0833099
-0.62720007 2.8750703 3.0836082
-0.57064444 2.8753459 3.0839212
-0.51168275 2.8767505 3.0842407
-0.45189542 2.8770413 3.0845716
-0.39128253 2.8762195 3.0849142
-2.1762216 2.9043555 3.0748038
-2.1189873 2.9253845 3.0749919
-2.0624402 2.9459066 3.0751793
-2.0174756 2.9181824 3.0756016
-1.9630309 2.9404662 3.0757666
-1.9223592 2.9114337 3.0761728
-1.8698914 2.9345949 3.0763216
-1.8317044 2.9098892 3.0766873
-1.7704777 2.9210417 3.0769591
-1.7204812 2.9455233 3.0770855
-1.6759269 2.9152827 3.0775211
-1.6286805 2.9371681 3.0776482
-1.5803049 2.9284666 3.0779717
-1.5230889 2.9176223 3.0783575
-1.4620532 2.9418194 3.078547
-1.4274809 2.9286108 3.0788212
-1.3739223 2.9174099 3.0791886
-1.308288 2.9314485 3.0794671
-1.2660434 2.9342968 3.0796845
-1.2297549 2.9227469 3.079958
-1.1857617 2.9252501 3.0801873
-1.1254952 2.9138079 3.0805941
-1.0520573 2.9234502 3.0809431
-1.0007199 2.9309323 3.0811822
-0.95152766 2.9322236 3.0814483
-0.89828169 2.9381413 3.081708
-0.83399129 2.9219131 3.0821664
-0.77961534 2.9273434 3.0824354
-0.71224171 2.9099264 3.0829186
-0.65570569 2.9135082 3.0832109
-0.59835517 2.9159918 3.0835147
-0.54099166 2.9162712 3.0838325
-0.48161715 2.917119 3.0841575
-0.42141703 2.9168534 3.0844944
-2.0731566 2.9804409 3.0749054
-2.0217278 2.9766576 3.0752153
-1.9717741 2.973784 3.0755112
-1.923768 2.9694512 3.0758052
-1.8766797 2.9675398 3.0760794
-1.8181272 2.9582114 3.0764632
-1.7797866 2.9879551 3.0764921
-1.7245755 2.97751 3.0768642
-1.6710215 2.9703689 3.0772066
-1.6121308 2.9847565 3.0774453
-1.5817974 2.9594228 3.0777712
-1.5243882 2.9783344 3.0779738
-1.4766889 2.9742661 3.0782642
-1.4314497 2.9838367 3.0784566
-1.3853979 2.9662418 3.0788217
-1.3332789 2.9651468 3.0791187
-1.2873809 2.977087 3.0793002
-1.2444763 2.9799798 3.0795212
-1.1743028 2.9917521 3.0798388
-1.1253622 2.9573905 3.0803244
-1.0788332 2.9595556 3.08057
-1.0279015 2.9675848 3.0808036
-0.97615838 2.9745197 3.0810487
-0.92623198 2.9758301 3.0813186
-0.87257493 2.9811935 3.081584
-0.82120103 2.9834185 3.0818563
-0.76662415 2.9885778 3.0821278
-0.72487116 2.9716535 3.0824652
-0.67019612 2.9729557 3.0827618
-0.62726808 2.9549785 3.083112
-0.5841704 2.976681 3.0832171
-0.52600217 2.9775155 3.0835359
-0.46661884 2.9778047 3.0838647
-2.0113175 3.0260923 3.0749667
-1.9809988 3.0073981 3.0752513
-1.9259896 3.0284474 3.0754271
-1.8776606 3.02528 3.0757155
-1.8307242 3.0234671 3.0759883
-1.7656937 3.0363698 3.0762701
-1.7290529 3.0097568 3.0766392
-1.6784035 3.0337949 3.0767722
-1.6246926 3.0265472 3.077116
-1.5751519 3.0144782 3.0774667
-1.5165269 3.0325243 3.0776811
-1.4866843 3.0112765 3.0779791
-1.4246645 3.0349541 3.0781772
-1.3656956 3.0124242 3.0786452
-1.3127623 3.011312 3.0789466
-1.2664738 3.0227258 3.0791335
-1.2229092 3.0256629 3.0793579
-1.1748486 3.0356216 3.0795634
-1.1157336 3.0201306 3.0799887
-1.0671775 3.0254626 3.0802259
-1.0175393 3.0303187 3.0804722
-0.95159692 3.0181072 3.080915
-0.90093625 3.0194368 3.0811889
-0.84686822 3.024246 3.08146
-0.79474974 3.0265031 3.0817363
-0.73977107 3.0311208 3.0820134
-0.68398887 3.0346549 3.0823021
-0.62815046 3.035985 3.0826046
-0.57039279 3.0379193 3.0829141
-0.51182061 3.0387557 3.083235
-1.9700915 3.0565264 3.0750074
-1.9288654 3.0869606 3.075048
-1.8792973 3.0834446 3.0753458
-1.8175693 3.072062 3.0757601
-1.7640908 3.0945692 3.075918
-1.7266846 3.0665648 3.0763001
-1.6630394 3.0817826 3.07656
-1.6279874 3.0579913 3.0769026
-1.5790315 3.0799336 3.0770392
-1.5283072 3.0708055 3.0773783
-1.4785774 3.0652914 3.0776892
-1.418149 3.0861745 3.0778961
-1.3694401 3.0675645 3.0782824
-1.3344165 3.0541832 3.0785601
-1.2922457 3.057477 3.0787745
-1.2234545 3.0698552 3.0790806
-1.152886 3.0807714 3.0794058
-1.1065055 3.0834105 3.0796475
-1.0562267 3.0913367 3.0798783
-1.0075829 3.0936 3.0801351
-0.96751201 3.0779209 3.0804555
-0.92703539 3.0616946 3.0807815
-0.87564057 3.0630434 3.0810592
-0.82116145 3.0672984 3.081336
-0.76829845 3.0695877 3.0816162
-0.71291798 3.0736635 3.0818992
-0.65673399 3.0766561 3.0821934
-0.60012007 3.0780044 3.0825002
-0.54195517 3.0793898 3.0828152
-1.8876394 3.1173947 3.0750887
-1.8322709 3.138679 3.0752649
-1.7705028 3.1272705 3.0756798
-1.7247106 3.1236405 3.0759571
-1.6796161 3.1222415 3.0762167
-1.6238286 3.1135845 3.076581
-1.5624819 3.127522 3.0768361
-1.5217023 3.1258898 3.0770731
-1.4709619 3.1196563 3.0773945
-1.4122199 3.137619 3.07761
-1.3745017 3.123208 3.077909
-1.3262911 3.1047888 3.0782914
-1.2725344 3.1332879 3.078414
-1.2246597 3.1140029 3.0788002
-1.1797749 3.1170292 3.0790312
-1.1309235 3.1259212 3.079248
-1.0838609 3.1285992 3.0794935
-1.0331817 3.1359854 3.0797296
-0.98383278 3.1382813 3.0799904
-0.91687608 3.124702 3.0804472
-0.86412859 3.1277597 3.0807219
-0.79545474 3.1103508 3.081212
-0.74184716 3.1126723 3.0814962
-0.6860649 3.1162064 3.0817847
-0.62947911 3.1186571 3.0820844
-0.57208967 3.120024 3.0823956
-1.8051873 3.1782629 3.0751703
-1.7773306 3.1602407 3.0754371
-1.7234154 3.181613 3.0756047
-1.6846681 3.1548781 3.0759861
-1.6323113 3.1777577 3.0761356
-1.5764298 3.1690366 3.0765009
-1.5351686 3.1653712 3.0767534
-1.4743603 3.1818628 3.0769897
-1.4232656 3.1753769 3.0773144
-1.3809311 3.1793742 3.0775251
-1.3307462 3.1602006 3.0779231
-1.2747836 3.192529 3.0780339
-1.2172244 3.1778069 3.0784457
-1.1582078 3.1627123 3.0788679
-1.1089609 3.1710713 3.0790901
-1.0612162 3.1737878 3.0793393
-1.0101365 3.180634 3.079581
-0.96008265 3.1829629 3.0798454
-0.90712249 3.1882567 3.0801072
-0.85335094 3.1924565 3.0803804
-0.82504916 3.1502566 3.0808001
-0.78475076 3.1736333 3.0808792
-0.72971857 3.1761062 3.0811703
-0.67407823 3.1787953 3.0814633
-0.60222423 3.1606581 3.0819757
-1.7639613 3.2086971 3.075211
-1.7227353 3.2391312 3.0752516
-1.6828914 3.2120879 3.0756412
-1.6169473 3.2257452 3.0759237
-1.5722963 3.2246466 3.076179
-1.5293826 3.2226992 3.0764298
-1.4677243 3.2369251 3.076685
-1.4351556 3.2137363 3.0770099
-1.3857334 3.2383347 3.0771327
-1.3365364 3.2161226 3.0775442
-1.2777863 3.2294827 3.0777881
-1.2101793 3.2421374 3.0780859
-1.1828456 3.2052801 3.0784667
-1.1366407 3.2083952 3.0787046
-1.0869983 3.2162211 3.0789323
-1.0385716 3.2189765 3.079185
-0.98709142 3.2252827 3.0794322
-0.93633258 3.2276444 3.0797005
-0.8829667 3.2323911 3.079968
-0.82878941 3.2360439 3.0802469
-0.77445775 3.2374699 3.0805407
-0.71833456 3.2395079 3.0808403
-0.66249329 3.2419262 3.0811362
-0.63235873 3.201292 3.0815558
-1.6682937 3.2605956 3.0754216
-1.6272591 3.2911599 3.0754604
-1.5889313 3.2651455 3.0758352
-1.5246983 3.278882 3.0761077
-1.4616071 3.2923567 3.0763752
-1.4282603 3.2686138 3.0767081
-1.3674636 3.2851138 3.0769441
-1.3175538 3.2625797 3.0773616
-1.2599361 3.2942758 3.0774856
-1.2350284 3.2847595 3.0776832
-1.1758007 3.2696106 3.0781069
-1.1280525 3.2753177 3.0783372
-1.0792711 3.2805662 3.0785761
-1.015927 3.2641652 3.0790308
-0.9640463 3.2699313 3.0792837
-0.91258246 3.2723258 3.0795555
-0.8588109 3.2765257 3.0798287
-0.80422795 3.2796314 3.0801132
-0.74916208 3.2810767 3.080411
-0.69262779 3.2825603 3.0807164
-1.5862191 3.3217201 3.0754995
-1.5202113 3.3353341 3.0757823
-1.4846609 3.3087707 3.0761449
-1.4330592 3.3318176 3.0762894
-1.3796897 3.3237121 3.0766368
-1.3251042 3.3191743 3.0769687
-1.2854745 3.304033 3.0772829
-1.2277801 3.3357 3.0774076
-1.1691462 3.3344679 3.0777414
-1.1201243 3.3421957 3.0779667
-1.0719392 3.3454444 3.0782146
-1.0430732 3.3065209 3.0786166
-0.99328238 3.3093538 3.0788765
-0.94100118 3.31458 3.0791349
-0.88883239 3.3170073 3.0794106
-0.83465511 3.3206601 3.0796893
-0.77966642 3.3232186 3.0799797
-0.72386634 3.3246832 3.0802813
-1.557831 3.360868 3.0754147
-1.5166051 3.3913021 3.0754552
-1.4797337 3.3654649 3.0758209
-1.4157267 3.3792639 3.0760918
-1.381721 3.355052 3.076431
-1.3309243 3.3786716 3.0765672
-1.2795883 3.355494 3.0769966
-1.2340114 3.3917904 3.0770249
-1.1952732 3.3769898 3.0773323
-1.1486297 3.3806329 3.0775692
-1.0747948 3.3894811 3.0779257
-1.0211107 3.3516707 3.0784588
-0.9848929 3.3756816 3.0785117
-0.93297458 3.3794799 3.0787773
-0.86508226 3.3616889 3.0792656
-0.81049931 3.3647945 3.07955
-0.75510496 3.366806 3.0798459
-1.4631841 3.4130535 3.0756178
-1.410097 3.4350429 3.0757768
-1.3753003 3.4102676 3.0761242
-1.3238025 3.4333882 3.0762677
-1.2740712 3.4070957 3.0767074
-1.2146645 3.4381084 3.0768456
-1.1753955 3.423105 3.077157
-1.128113 3.4267981 3.0773971
-1.0783103 3.4334731 3.0776331
-1.0288049 3.4368107 3.077888
-0.97718555 3.4419706 3.0781434
-0.92534846 3.4449201 3.0784137
-0.8833884 3.4262016 3.0787635
-0.8413322 3.4063702 3.0791206
-0.78634351 3.4089289 3.0794108
-1.4341531 3.4521704 3.0755367
-1.3810616 3.4741564 3.075696
-1.3168873 3.4882517 3.0759656
-1.2692775 3.4589739 3.0764122
-1.208806 3.4895799 3.0765588
-1.1686734 3.4742465 3.0768771
-1.1075965 3.4729631 3.077225
-1.0574032 3.4791117 3.0774665
-1.0072378 3.4824939 3.0777247
-0.95522296 3.4871204 3.0779855
-0.90270388 3.4901087 3.0782595
-0.83320141 3.4721131 3.078758
-1.3517009 3.5130389 3.0756183
-1.3104749 3.543473 3.0756588
-1.2761153 3.5190091 3.0760019
-1.2270756 3.5234146 3.0762475
-1.1759704 3.5307443 3.0764861
-1.1356403 3.5153356 3.0768061
-1.0870799 3.5191283 3.0770528
-1.0364962 3.5247502 3.0772998
-0.98567069 3.5281768 3.0775614
-0.93326044 3.5322704 3.0778277
-0.88005924 3.5352974 3.0781052
-1.2692488 3.5739071 3.0756996
-1.2464426 3.5576689 3.0759273
-1.1846751 3.5877795 3.0760841
-1.1292689 3.5666111 3.0765238
-1.0665634 3.5652933 3.0768807
-1.0155891 3.5703888 3.0771329
-0.96410352 3.5738599 3.0773981
-0.91129786 3.5774202 3.0776699
-1.2280228 3.6043413 3.0757403
-1.1656923 3.6342368 3.0759015
-1.1232485 3.6180205 3.0762384
-1.095885 3.6075659 3.0764554
-1.0460467 3.6114585 3.0767086
-0.99468201 3.6160274 3.0769663
-0.94253641 3.6195431 3.0772347
-1.1179296 3.6696982 3.0759473
-1.0660686 3.6767387 3.0761924
-1.0255302 3.6576235 3.0765364
-0.97377497 3.6616659 3.0767996
-1.0841948 3.7105191 3.075882
-1.0206329 3.7248502 3.0761466
-3.3214033 -3.9250603 3.1107905
-3.3589802 -3.8772011 3.1102843
-3.3128581 -3.875242 3.1105289
-3.2814534 -3.8931415 3.1108148
-3.2415035 -3.8612227 3.1108394
-3.3965569 -3.8293419 3.1097782
-3.327136 -3.8267062 3.1101484
-3.2734139 -3.8437274 3.110553
-3.2177134 -3.8204441 3.1107187
-3.4341338 -3.7814827 3.109272
-3.3869386 -3.780112 3.1095264
-3.3409386 -3.7787762 3.1097744
-3.2805715 -3.7849593 3.1101487
-3.2262428 -3.7619457 3.1103084
-3.1779733 -3.7884107 3.1107411
-3.1216538 -3.7654667 3.1109126
-3.4717107 -3.7336235 3.1087658
-3.4239028 -3.7322352 3.1090236
-3.3773205 -3.7308824 3.1092746
-3.331918 -3.729564 3.1095192
-3.272279 -3.7353432 3.1098871
-3.2186127 -3.7123072 3.110043
-3.1709781 -3.7384238 3.1104703
-3.1153996 -3.7157819 3.1106391
-3.0817039 -3.7335479 3.1109369
-3.041754 -3.7016294 3.1109614
-3.5189795 -3.67342 3.1081293
-3.4608505 -3.6843576 3.1085207
-3.4136715 -3.6829877 3.1087749
-3.3677022 -3.6816525 3.1090226
-3.3228972 -3.6803515 3.1092641
-3.2786777 -3.6759691 3.1094832
-3.230139 -3.6790767 3.1097727
-3.1799219 -3.6796985 3.1100562
-3.1285949 -3.6816366 3.1103539
-3.0758991 -3.6836262 3.1106596
-3.0191073 -3.6605875 3.1108329
-3.5662484 -3.6132166 3.1074927
-3.5228906 -3.6044998 3.1076801
-3.4919484 -3.6447501 3.1081018
-3.4267154 -3.6344159 3.1084011
-3.3580842 -3.6324229 3.1087708
-3.3138764 -3.631139 3.109009
-3.2701325 -3.6261508 3.1092219
-3.2223041 -3.6295505 3.1095092
-3.1727114 -3.6298296 3.109787
-3.1220779 -3.6317415 3.1100807
-3.0700941 -3.6337044 3.1103821
-3.0310671 -3.6012995 3.1103985
-2.9793947 -3.6285439 3.1108551
-2.9219046 -3.6058733 3.1110346
-3.575789 -3.5686636 3.1071632
-3.5110455 -3.5556474 3.1074429
-3.4806736 -3.5960124 3.1078625
-3.4391303 -3.5858259 3.1080306
-3.3932095 -3.5844924 3.108278
-3.3266606 -3.5825598 3.1086366
-3.2615876 -3.5763328 3.1089604
-3.233217 -3.5966563 3.1092443
-3.1806111 -3.5716765 3.1093822
-3.1344845 -3.5969663 3.1097958
-3.0804634 -3.5752552 3.109962
-3.0257237 -3.5511343 3.1101172
-2.9747992 -3.5783477 3.1105695
-2.9180772 -3.5556448 3.1107445
-2.8819547 -3.5739546 3.111059
-3.6292737 -3.5329454 3.1066442
-3.584904 -3.5246532 3.1068394
-3.5413861 -3.5152762 3.1070235
-3.4842994 -3.5270348 3.1074142
-3.4282701 -3.5365603 3.1077852
-3.3829784 -3.5352449 3.1080294
-3.3388479 -3.5339634 3.1082673
-3.2744386 -3.5296144 3.1085989
-3.2251775 -3.5472422 3.1089826
-3.1731906 -3.5219231 3.1091151
-3.1277049 -3.5468614 3.1095228
-3.0744338 -3.5254519 3.1096866
-3.0203803 -3.5009694 3.1098359
-2.9702032 -3.5281513 3.1102834
-2.9142499 -3.5054164 3.1104541
-2.8786361 -3.5234683 3.1107643
-2.8220298 -3.5260768 3.1110954
-3.6765425 -3.4727421 3.1060076
-3.6158087 -3.4844038 3.1064181
-3.5720468 -3.4762254 3.1066108
-3.5289547 -3.466306 3.1067891
-3.4727395 -3.4782398 3.1071761
-3.4174099 -3.4872944 3.1075401
-3.3727472 -3.4859974 3.1077809
-3.3292296 -3.4847336 3.1080155
-3.286814 -3.4835019 3.1082439
-3.2308178 -3.4872622 3.1085792
-3.1657705 -3.4721694 3.1088476
-3.1209249 -3.4967566 3.1092496
-3.0684042 -3.4756486 3.1094112
-3.0150368 -3.4508045 3.1095543
-2.9823267 -3.468051 3.1098433
-2.9296556 -3.4715233 3.110158
-2.8753176 -3.4729817 3.1104696
-2.8392489 -3.4919991 3.1107883
-2.7809677 -3.4690101 3.11097
-3.7238114 -3.4125385 3.105371
-3.6777716 -3.4045734 3.1055779
-3.6245203 -3.4400072 3.1060941
-3.5591898 -3.4277976 3.1063819
-3.5165236 -3.4173357 3.1065545
-3.4755094 -3.4090903 3.1067317
-3.4296579 -3.42963 3.1071143
-3.3625162 -3.4367497 3.1075325
-3.3196115 -3.4355037 3.1077635
-3.2777934 -3.4342895 3.1079891
-3.2225254 -3.4376459 3.1083174
-3.1728308 -3.4144764 3.1084507
-3.1290073 -3.4385037 3.1088433
-3.0778749 -3.4176731 3.108999
-3.0282841 -3.4173286 3.109273
-2.9774575 -3.4176359 3.1095576
-2.9255807 -3.4214203 3.10987
-2.871999 -3.4224954 3.1101749
-2.836493 -3.4419625 3.1104932
-2.7790165 -3.4185812 3.1106682
-2.7221551 -3.4462798 3.1111565
-2.6822052 -3.4143612 3.111181
-3.7553239 -3.3724031 3.1049466
-3.7086358 -3.3643255 3.1051564
-3.6632445 -3.3564727 3.1053605
-3.632607 -3.3954935 3.105773
-3.5888791 -3.387321 3.1059659
-3.5252128 -3.3738675 3.1062365
-3.4636643 -3.3602378 3.1064947
-3.4242997 -3.3523238 3.1066647
-3.3739874 -3.3881326 3.1071668
-3.3099933 -3.3862741 3.1075118
-3.2687726 -3.385077 3.107734
-3.2142332 -3.3880298 3.1080561
-3.1652005 -3.3648379 3.1081851
-3.1220119 -3.3885169 3.1085725
-3.0716207 -3.3679881 3.1087255
-3.0227098 -3.3672853 3.1089935
-2.9725881 -3.3672211 3.109272
-2.9215059 -3.3713174 3.1095819
-2.8686807 -3.372009 3.1098802
-2.8337371 -3.3919256 3.1101983
-2.7770653 -3.3681524 3.1103663
-2.7210562 -3.3961804 3.1108518
-2.6816778 -3.3639944 3.1108716
-2.6222804 -3.3664832 3.1112175
-3.7868366 -3.3322675 3.1045222
-3.7397044 -3.3247554 3.104738
-3.69346 -3.3161128 3.1049418
-3.6336174 -3.3276036 3.1053462
-3.5754142 -3.3387797 3.1057396
-3.5334756 -3.3309419 3.1059241
-3.4717402 -3.3153903 3.1061714
-3.4130249 -3.303586 3.106425
-3.3848295 -3.3394969 3.1068048
-3.3212147 -3.3376493 3.1071477
-3.2597518 -3.3358645 3.1074789
-3.2188621 -3.3272417 3.1076531
-3.1785235 -3.3216522 3.1078432
-3.1150169 -3.3385301 3.1083012
-3.0653665 -3.3183033 3.1084523
-3.035265 -3.3341744 3.1087182
-2.9833627 -3.308558 3.1088481
-2.9359217 -3.3379259 3.1092944
-2.8821516 -3.3130126 3.1094394
-2.8309815 -3.3418887 3.1099031
-2.7751143 -3.3177238 3.1100645
-2.7199576 -3.346081 3.1105471
-2.6811504 -3.3136277 3.1105621
-2.6226397 -3.3160791 3.1109028
-2.5623555 -3.3186049 3.1112542
-3.8341055 -3.2720642 3.1038857
-3.7705438 -3.2845125 3.1043167
-3.7240849 -3.277108 3.1045294
-3.6782844 -3.2678998 3.1047273
-3.6193089 -3.2792239 3.1051259
-3.5619495 -3.2902381 3.1055136
-3.5206187 -3.2825141 3.1056955
-3.4792299 -3.2704251 3.1058509
-3.4208617 -3.2586908 3.1061029
-3.3739693 -3.290231 3.1065598
-3.3318229 -3.2890072 3.1067867
-3.2707438 -3.2872334 3.107116
-3.2103169 -3.2774234 3.1073916
-3.1769409 -3.2507572 3.1074121
-3.1360886 -3.2731552 3.1077785
-3.0764592 -3.2824779 3.1081681
-3.0294602 -3.2842526 3.1084409
-2.9782562 -3.2582679 3.1085649
-2.9315996 -3.2879484 3.1090086
-2.8785787 -3.262655 3.1091468
-2.8282256 -3.2918518 3.1096082
-2.7731633 -3.2672949 3.1097624
-2.7188587 -3.2959816 3.1102426
-2.6806228 -3.2632608 3.1102526
-2.6229985 -3.2656751 3.1105881
-2.563628 -3.2681627 3.1109343
-2.5224056 -3.2866864 3.1112785
-2.4824557 -3.2547677 3.1113031
-3.8813744 -3.2118607 3.1032491
-3.8170128 -3.2248316 3.1036878
-3.754251 -3.2367575 3.1041112
-3.7084653 -3.2294602 3.1043208
-3.6631088 -3.2196867 3.1045127
-3.6196628 -3.2121704 3.104708
-3.5832937 -3.2251897 3.104991
-3.5281231 -3.2378914 3.105377
-3.4667988 -3.2214549 3.1056163
-3.4281285 -3.2136805 3.1057835
-3.3767924 -3.2235379 3.1061304
-3.3215919 -3.2397597 3.1065383
-3.2811389 -3.2385848 3.1067564
-3.221741 -3.2325225 3.1070495
-3.1689017 -3.2013428 3.1071503
-3.1286683 -3.2234015 3.107511
-3.0699422 -3.2325833 3.1078949
-3.0236554 -3.2343309 3.1081634
-2.9579799 -3.2159762 3.1084154
-2.9272776 -3.2379706 3.1087224
-2.8750057 -3.2122974 3.1088543
-2.8254697 -3.2418151 3.109313
-2.7712121 -3.216866 3.1094604
-2.7177601 -3.245882 3.1099379
-2.6800954 -3.2128942 3.1099432
-2.6233578 -3.2152715 3.1102736
-2.5649004 -3.2177205 3.1106143
-2.5243123 -3.2359593 3.1109533
-2.484977 -3.2045317 3.1109774
-2.4425058 -3.2228489 3.1113274
-3.9128869 -3.171725 3.1028249
-3.8634753 -3.1651587 3.1030591
-3.8149769 -3.157429 3.103281
-3.7764916 -3.1741779 3.1035991
-3.7379582 -3.1890028 3.1039057
-3.6928458 -3.1818125 3.1041121
-3.6265345 -3.1677718 3.1043944
-3.5621595 -3.1522026 3.104656
-3.5350196 -3.1931553 3.1050613
-3.4746361 -3.1790714 3.1053097
-3.4162831 -3.1648281 3.1055462
-3.365725 -3.1745362 3.1058879
-3.3113606 -3.1905119 3.1062899
-3.2715206 -3.1893551 3.1065044
-3.2326894 -3.1882274 3.1067138
-3.1770444 -3.1648579 3.1068788
-3.1212478 -3.1736479 3.1072438
-3.0802462 -3.1961279 3.1076114
-3.0322273 -3.1768291 3.107759
-2.970715 -3.1827705 3.1081386
-2.9229555 -3.1879928 3.1084366
-2.8714328 -3.1619401 3.108562
-2.8227139 -3.1917782 3.1090181
-2.7692609 -3.1664371 3.1091585
-2.7166612 -3.1957827 3.1096332
-2.6795681 -3.1625273 3.1096337
-2.6424992 -3.1798739 3.1099474
-2.5661731 -3.1672783 3.1102943
-2.5262189 -3.1852322 3.1106279
-2.4874983 -3.1542954 3.1106517
-2.4241233 -3.1816282 3.1111741
-2.3626063 -3.1590116 3.1113763
-3.9443994 -3.1315894 3.1024005
-3.8942611 -3.1249263 3.1026382
-3.8455763 -3.1184566 3.102869
-3.774456 -3.1067753 3.1031923
-3.7216654 -3.1412477 3.1037002
-3.6772263 -3.134165 3.1039035
-3.6327574 -3.123261 3.1040835
-3.5906084 -3.1159689 3.1042731
-3.5348125 -3.1240792 3.1046338
-3.4820476 -3.1372304 3.1050091
-3.4231873 -3.119745 3.1052282
-3.3679259 -3.1086352 3.1054668
-3.3212593 -3.141849 3.1059327
-3.2619026 -3.1401253 3.1062527
-3.2236688 -3.139015 3.1064587
-3.1687522 -3.1152415 3.106617
-3.1138272 -3.1238947 3.1069765
-3.0734665 -3.146023 3.1073384
-3.0261979 -3.1270258 3.1074839
-2.9829762 -3.1498146 3.1078658
-2.9334373 -3.1265807 3.1079974
-2.8678598 -3.1115828 3.1082695
-2.819958 -3.1417413 3.1087232
-2.7673097 -3.1160083 3.1088567
-2.7155626 -3.1456833 3.1093285
-2.6790407 -3.1121607 3.1093242
-2.6237473 -3.1395464 3.1098018
-2.5674455 -3.1168363 3.1099744
-2.5281258 -3.134505 3.1103027
-2.4900196 -3.1040595 3.1103261
-2.4276204 -3.1313553 3.1108427
-2.36711 -3.1087008 3.1110392
-2.3226564 -3.1270928 3.1114006
-4.0074248 -3.0513182 3.1015518
-3.9759121 -3.0914538 3.1019762
-3.9250252 -3.0846913 3.1022174
-3.8756354 -3.0781279 3.1024518
-3.8276772 -3.0717547 3.102679
-3.7800922 -3.0628614 3.1028886
-3.7200034 -3.0748582 3.1032977
-3.661607 -3.0865173 3.1036952
-3.6175818 -3.075048 3.103869
-3.5760813 -3.0678682 3.1040554
-3.5210352 -3.0754793 3.1044092
-3.4691906 -3.0888026 3.1047802
-3.4295053 -3.0745444 3.1049128
-3.3746219 -3.0635104 3.1051497
-3.3305287 -3.0931678 3.1055791
-3.2715914 -3.0914562 3.1058969
-3.214648 -3.0898025 3.1062038
-3.1761365 -3.0781505 3.1063459
-3.1321011 -3.0600538 3.1064787
-3.0800409 -3.0885966 3.1069455
-3.0201683 -3.0772226 3.1072085
-2.9776328 -3.0996497 3.1075845
-2.9288416 -3.0763845 3.1077116
-2.8798044 -3.0533597 3.1078417
-2.8329859 -3.0803976 3.1082702
-2.7820344 -3.0574563 3.1084116
-2.7315733 -3.0846434 3.108861
-2.6785133 -3.0617938 3.1090147
-2.6241064 -3.0891423 3.1094871
-2.568718 -3.0663941 3.1096544
-2.5300324 -3.0837777 3.1099775
-2.4723005 -3.0625525 3.1101675
-2.4101741 -3.090883 3.1106887
-2.3716137 -3.0583897 3.110702
-2.3277943 -3.0772886 3.111063
-2.2827065 -3.0951741 3.1114249
-2.2427566 -3.0632555 3.1114495
-4.0389371 -3.0111825 3.1011274
-3.9715891 -3.0253863 3.1015904
-3.9056513 -3.0377934 3.1020343
-3.8570099 -3.0313292 3.1022651
-3.8097782 -3.0250525 3.102489
-3.76265 -3.0155778 3.1026926
-3.7178912 -3.0090425 3.1029012
-3.6890798 -3.0457377 3.1032891
-3.624197 -3.0328524 3.1035705
-3.561554 -3.0197675 3.103838
-3.5198908 -3.006228 3.103986
-3.4754791 -3.0439529 3.1044669
-3.417074 -3.025574 3.1046782
-3.3807473 -3.0182707 3.104835
-3.3325224 -3.0275307 3.105161
-3.2806675 -3.0427694 3.1055443
-3.2241468 -3.0411279 3.1058488
-3.1675913 -3.0283322 3.1060846
-3.1242661 -3.0105274 3.106215
-3.0730457 -3.03861 3.1066744
-3.0141389 -3.0274193 3.1069331
-2.9722893 -3.0494847 3.1073029
-2.9242458 -3.0261881 3.1074257
-2.875977 -3.0031312 3.1075516
-2.8299487 -3.0301361 3.1079752
-2.77981 -3.0071607 3.1081119
-2.730185 -3.0343127 3.1085565
-2.6779857 -3.0114272 3.1087053
-2.6244655 -3.0387387 3.1091723
-2.5699904 -3.0159519 3.1093345
-2.531939 -3.0330505 3.1096523
-2.4751539 -3.0121732 3.109839
-2.4139833 -3.0408595 3.1103573
-2.3761175 -3.0080788 3.1103649
-2.332932 -3.0274842 3.1107256
-2.2885716 -3.0450814 3.1110816
-2.2260363 -3.0225072 3.1112897
-4.0704498 -2.9710469 3.100703
-4.017837 -2.9653983 3.100961
-3.9667954 -2.9599183 3.1012111
-3.926301 -2.9757063 3.1015344
-3.8862772 -2.9908953 3.1018515
-3.8383842 -2.9845307 3.1020784
-3.7918792 -2.9783506 3.102299
-3.7231779 -2.9650774 3.1025991
-3.6646404 -2.9741054 3.1029809
-3.630368 -2.9912221 3.1032779
-3.5872304 -2.9786222 3.1034398
-3.5264139 -2.9646182 3.1036916
-3.4744279 -2.974719 3.1040435
-3.4240596 -2.9842753 3.104383
-3.368902 -2.9694183 3.104598
-3.321455 -2.978529 3.1049185
-3.2704363 -2.9935217 3.1052957
-3.233048 -2.9924359 3.1054974
-3.1778264 -2.984946 3.1057582
-3.1164312 -2.9610009 3.1059515
-3.0660505 -2.9886231 3.1064034
-3.0215876 -2.9705098 3.1065385
-2.9807885 -2.9920211 3.1068993
-2.9196501 -2.975992 3.1071401
-2.8721499 -2.9529028 3.1072614
-2.8269114 -2.9798744 3.1076803
-2.7775853 -2.9568651 3.1078124
-2.728797 -2.9839818 3.108252
-2.6774583 -2.9610603 3.1083956
-2.6248245 -2.9883347 3.1088576
-2.5712628 -2.9655097 3.1090145
-2.5338457 -2.9823234 3.1093268
-2.4780068 -2.9617941 3.1095104
-2.4177923 -2.9908359 3.1100259
-2.3806212 -2.9577677 3.1100278
-2.3380699 -2.97768 3.110388
-2.275106 -2.9795442 3.1107502
-2.2100778 -2.9814694 3.111124
-2.1628568 -2.999418 3.1114981
-2.1229069 -2.9674993 3.1115227
-4.1019626 -2.9309113 3.1002786
-4.0488725 -2.9258707 3.1005428
-3.9967372 -2.9196141 3.1007943
-3.9464808 -2.9142182 3.1010406
-3.8817191 -2.9251275 3.1014688
-3.8197584 -2.937732 3.101892
-3.7739801 -2.9316485 3.1021087
-3.7277653 -2.9210103 3.1023002
-3.6844053 -2.9146793 3.1025023
-3.6274748 -2.9230237 3.1028709
-3.5720549 -2.9304092 3.1032252
-3.5324996 -2.9235661 3.1034031
-3.4729712 -2.9054093 3.103622
-3.4306195 -2.9435191 3.1040938
-3.3746343 -2.9240999 3.1042848
-3.3228266 -2.9136844 3.1045089
-3.2790768 -2.9448223 3.1049457
-3.2234299 -2.9432063 3.1052454
-3.1690435 -2.9354305 3.1055002
-3.1206651 -2.9048579 3.1055799
-3.0841455 -2.9248805 3.1059074
-3.0308404 -2.9332142 3.1062558
-2.9752145 -2.9419777 3.1066198
-2.9150543 -2.9257956 3.1068542
-2.8683226 -2.9026742 3.106971
-2.8238745 -2.9296129 3.1073856
-2.7753608 -2.9065692 3.1075127
-2.7274084 -2.9336512 3.1079473
-2.6769309 -2.9106934 3.1080861
-2.6251836 -2.9379306 3.1085429
-2.5725355 -2.9150674 3.1086946
-2.5179286 -2.9173555 3.1090126
-2.4616153 -2.9197149 3.1093407
-2.4216015 -2.9408121 3.1096942
-2.3851249 -2.9074569 3.1096907
-2.3217547 -2.9363856 3.1102226
-2.2622848 -2.9145217 3.1104181
-2.2173488 -2.9316018 3.1107743
-2.1709149 -2.9492514 3.1111422
-2.1316309 -2.9178646 3.1111662
-2.082957 -2.9355807 3.111547
-2.0430071 -2.903662 3.1115713
-4.0795684 -2.8856575 3.1001227
-4.0272951 -2.8806946 3.1003828
-3.9756372 -2.8738298 3.1006279
-3.9261661 -2.8685184 3.1008701
-3.8766904 -2.8599589 3.1010926
-3.8256059 -2.8794112 3.1014977
-3.7560811 -2.8849463 3.1019187
-3.7103229 -2.8737266 3.1021039
-3.6676621 -2.8674977 3.1023028
-3.6239085 -2.854718 3.1024671
-3.5780041 -2.8890615 3.1029358
-3.5179725 -2.8754652 3.1031857
-3.4776223 -2.8602533 3.1033158
-3.4292641 -2.8742285 3.1036716
-3.3797805 -2.8786635 3.1039746
-3.3283815 -2.86833 3.1041965
-3.2870882 -2.8961046 3.1045988
-3.2318931 -2.8945017 3.1048961
-3.178565 -2.8929529 3.1051836
-3.127291 -2.8671608 3.105309
-3.076725 -2.8751268 3.1056399
-3.0243235 -2.8833194 3.1059825
-2.9696403 -2.8919344 3.1063404
-2.9238944 -2.8630717 3.106416
-2.880759 -2.8702865 3.1067009
-2.820837 -2.8793511 3.1070905
-2.7731364 -2.8562737 3.107213
-2.7260203 -2.8833203 3.1076431
-2.6764035 -2.8603268 3.1077766
-2.6255426 -2.887527 3.1082284
-2.573808 -2.8646252 3.1083746
-2.5201426 -2.866874 3.1086872
-2.4648001 -2.8691926 3.1090097
-2.4254107 -2.8907886 3.1093628
-2.3896286 -2.8571458 3.1093535
-2.3272562 -2.8864369 3.1098824
-2.2687943 -2.8649437 3.1100745
-2.2246199 -2.8817344 3.1104245
-2.178973 -2.8990848 3.110786
-2.1403546 -2.8682299 3.1108098
-2.0728695 -2.869957 3.111196
-2.0030572 -2.8717432 3.1115959
-4.0057178 -2.8355184 3.1002226
-3.9545372 -2.8280454 3.1004612
-3.9058514 -2.8228183 3.1006999
-3.8568459 -2.8136599 3.1009159
-3.8087811 -2.8033032 3.1011193
-3.7825069 -2.8441348 3.1015186
-3.7381821 -2.8382444 3.1017287
-3.6718998 -2.8233795 3.1020055
-3.6076157 -2.806963 3.1022615
-3.5756998 -2.8244553 3.1025476
-3.5225744 -2.8306739 3.1028819
-3.4635327 -2.8115952 3.1030924
-3.4161031 -2.8257437 3.1034441
-3.3673494 -2.8296933 3.10374
-3.3168216 -2.819535 3.1039581
-3.2762282 -2.8468387 3.1043537
-3.2219682 -2.845263 3.104646
-3.1695442 -2.8437405 3.1049285
-3.1189985 -2.8175445 3.1050475
-3.0693047 -2.8253732 3.1053727
-3.0178065 -2.8334248 3.1057093
-2.964066 -2.8418911 3.106061
-2.9190249 -2.8126569 3.1061304
-2.8766842 -2.8201833 3.1064129
-2.8178 -2.8290896 3.1067958
-2.7709119 -2.8059781 3.1069136
-2.724632 -2.8329897 3.1073384
-2.6758761 -2.8099599 3.1074672
-2.6259017 -2.8371229 3.1079137
-2.5750804 -2.8141832 3.1080546
-2.5223565 -2.8163924 3.1083617
-2.4679852 -2.8186703 3.1086786
-2.4292197 -2.840765 3.1090312
-2.3738079 -2.8175509 3.1091957
-2.3120317 -2.8447101 3.1097081
-2.2753036 -2.8153656 3.1097307
-2.2318909 -2.831867 3.1100745
-2.187031 -2.8489182 3.11043
-2.1255667 -2.8271532 3.1106372
-2.0634592 -2.8048742 3.1108446
-2.0139604 -2.8228903 3.111232
-1.9631073 -2.8398247 3.1116202
-1.9231575 -2.8079059 3.1116447
-3.9841402 -2.7903423 3.1000626
-3.9334373 -2.7822611 3.1002948
-3.8855367 -2.7771184 3.1005294
-3.8370016 -2.7673609 3.1007392
-3.7766442 -2.7768707 3.1011343
-3.7327693 -2.77104 3.1013422
-3.6754382 -2.7791593 3.1017115
-3.6341763 -2.7731345 3.1019039
-3.5717967 -2.7560959 3.1021454
-3.5265279 -2.7857704 3.1025815
-3.4889181 -2.7792637 3.1027505
-3.4316397 -2.7596097 3.1029475
-3.3734832 -2.7894793 3.1034565
-3.3215208 -2.7740088 3.1036496
-3.2771852 -2.782522 3.1039493
-3.229512 -2.7965317 3.1043017
-3.1775494 -2.7950225 3.1045818
-3.1248658 -2.7792411 3.1047773
-3.0734384 -2.7692847 3.1050019
-3.0260079 -2.7952895 3.105427
-2.9839916 -2.7784033 3.1055562
-2.9298639 -2.7804508 3.1058702
-2.8726096 -2.7700801 3.1061246
-2.8147626 -2.7788281 3.1065009
-2.7686875 -2.7556822 3.1066139
-2.7232437 -2.7826591 3.1070342
-2.6753485 -2.7595932 3.1071577
-2.6262608 -2.7867188 3.1075993
-2.5763528 -2.763741 3.1077347
-2.5245705 -2.7659106 3.1080363
-2.4711699 -2.7681479 3.1083474
-2.4330289 -2.7907414 3.1086998
-2.3786285 -2.7674932 3.1088586
-2.3178968 -2.7946174 3.1093647
-2.2818131 -2.7657876 3.1093869
-2.239162 -2.7819993 3.1097248
-2.1764457 -2.7838562 3.1100855
-2.1116035 -2.7857759 3.1104584
-2.0736852 -2.7554803 3.1104815
-2.0248635 -2.7740374 3.1108685
-1.9748873 -2.7906797 3.1112497
-1.9356261 -2.7593114 3.111274
-1.8832077 -2.7759871 3.1116691
-3.9123373 -2.7364769 3.1001282
-3.865222 -2.7314184 3.1003592
-3.8171573 -2.7210617 3.1005623
-3.7700331 -2.709507 3.1007531
-3.7145069 -2.7242899 3.1011539
-3.6579959 -2.7318757 3.1015153
-3.6174333 -2.7259529 3.1017044
-3.5750301 -2.7114532 3.1018505
-3.5240016 -2.721447 3.1021967
-3.4743907 -2.731163 3.1025331
-3.4178624 -2.71101 3.1027226
-3.3727627 -2.725594 3.1030641
-3.3260813 -2.7284546 3.1033416
-3.2661176 -2.7335203 3.1037068
-3.219281 -2.7472839 3.1040533
-3.1682301 -2.7458014 3.1043282
-3.1163206 -2.729423 3.1045158
-3.0772569 -2.7133694 3.1046338
-3.0310745 -2.7386897 3.1050477
-2.977962 -2.7286 3.1052809
-2.9247575 -2.730161 3.1055868
-2.868535 -2.7199769 3.1058366
-2.8255398 -2.7156858 3.1060493
-2.782187 -2.7234168 3.1063385
-2.7218556 -2.7323284 3.1067295
-2.6748211 -2.7092264 3.1068482
-2.6266201 -2.7363153 3.1072845
-2.5776255 -2.7132988 3.1074145
-2.5267844 -2.7154293 3.1077108
-2.474355 -2.7176256 3.1080163
-2.4199889 -2.7234654 3.108355
-2.363759 -2.7286582 3.1087003
-2.3237619 -2.7445245 3.1090214
-2.2883224 -2.7162097 3.1090431
-2.2247901 -2.7403584 3.1095464
-2.1665263 -2.719326 3.1097405
-2.1211524 -2.735841 3.1100955
-2.0839109 -2.7060864 3.1101182
-2.0357666 -2.7251844 3.1105046
-1.986667 -2.7415349 3.1108794
-1.9480947 -2.7107167 3.110903
-1.896596 -2.7271001 3.1112914
-1.8232828 -2.7281091 3.1117058
-3.8449073 -2.6857185 3.1001887
-3.7739859 -2.6686859 3.1004777
-3.7080042 -2.6569405 3.1007724
-3.6755352 -2.6747875 3.1010637
-3.6206219 -2.6816816 3.1014121
-3.5587373 -2.6636982 3.101645
-3.5210314 -2.6576886 3.1018176
-3.4780202 -2.6862035 3.1022339
-3.4212642 -2.6656208 3.1024222
-3.3701918 -2.656076 3.1026473
-3.3300557 -2.6827826 3.1030364
-3.2821417 -2.6731498 3.1032434
-3.2263489 -2.6985388 3.1037114
-3.175339 -2.6970575 3.1039863
-3.1251287 -2.6878541 3.1042089
-3.0694222 -2.6638429 3.1043701
-3.0240793 -2.6887031 3.1047766
-2.9719324 -2.6787965 3.1050057
-2.919651 -2.6798708 3.1053033
-2.8797343 -2.688216 3.1055772
-2.8357038 -2.6583657 3.1056371
-2.7796969 -2.6732504 3.1060414
-2.7204671 -2.6819978 3.1064253
-2.6742938 -2.6588597 3.1065388
-2.6269791 -2.6859112 3.1069698
-2.578898 -2.6628566 3.1070945
-2.5289984 -2.6649475 3.1073854
-2.4775398 -2.6671035 3.1076851
-2.4241452 -2.6732981 3.1080208
-2.368897 -2.678854 3.1083629
-2.329627 -2.6944318 3.1086781
-2.2742679 -2.674448 3.1088624
-2.211205 -2.6984184 3.1093619
-2.1752503 -2.6696913 3.1093841
-2.1307013 -2.6859062 3.1097326
-2.094137 -2.6566925 3.1097548
-2.0466697 -2.6763315 3.110141
-1.9795052 -2.6772561 3.1105206
-1.9099842 -2.6782129 3.1109135
-1.8573469 -2.6957412 3.1113153
-1.8180979 -2.6643827 3.1113393
-1.763358 -2.6802311 3.1117423
-3.8245926 -2.6400185 3.1000183
-3.7774684 -2.6284637 3.100209
-3.7312851 -2.615711 3.1003871
-3.6893785 -2.610142 3.1005857
-3.6358991 -2.6210213 3.1009507
-3.5839472 -2.6315897 3.1013055
-3.5239282 -2.612992 3.1015244
-3.4810009 -2.6411316 3.1019378
-3.4262555 -2.625962 3.1021485
-3.3734417 -2.6106582 3.1023476
-3.3291223 -2.6191683 3.1026468
-3.2705815 -2.6243548 3.1030049
-3.2273574 -2.6251426 3.1032505
-3.1822698 -2.6483083 3.1036453
-3.133461 -2.6468909 3.1039083
-3.0741353 -2.6194735 3.1040688
-3.0170844 -2.6387162 3.1045055
-2.9659028 -2.6289933 3.1047301
-2.9295418 -2.648165 3.1050515
-2.8874798 -2.6246178 3.1051395
-2.8321309 -2.6080084 3.1053448
-2.7772069 -2.6230841 3.1057439
-2.719079 -2.6316671 3.1061206
-2.6737664 -2.6084929 3.1062293
-2.6273384 -2.6355071 3.1066551
-2.5801704 -2.6124144 3.1067746
-2.5312126 -2.6144657 3.10706
-2.4807248 -2.6165812 3.1073542
-2.4283018 -2.6231308 3.1076865
-2.3740346 -2.6290495 3.1080253
-2.3184166 -2.6306963 3.108345
-2.2609749 -2.6323969 3.1086755
-2.2192631 -2.6482518 3.1090059
-2.183974 -2.6200569 3.1090276
-2.1223066 -2.621635 3.1093805
-2.0575726 -2.6274786 3.1097772
-2.0102267 -2.6432452 3.1101387
-1.9730321 -2.6135275 3.1101613
-1.9233725 -2.6293259 3.1105359
-1.8714361 -2.647414 3.1109369
-1.832888 -2.6166155 3.1109607
-1.7791256 -2.6321809 3.1113565
-1.7324109 -2.6251814 3.111573
-1.6849965 -2.6176229 3.1117902
-3.7576241 -2.5821648 3.1000323
-3.7119112 -2.5688128 3.100204
-3.6707528 -2.5633433 3.1003993
-3.6182282 -2.5740285 3.1007576
-3.5672042 -2.584408 3.1011062
-3.5261517 -2.5681882 3.101234
-3.477809 -2.5776563 3.1015618
-3.430809 -2.5868609 3.1018806
-3.3765309 -2.5652106 3.1020484
-3.3164783 -2.5704694 3.1024151
-3.2741396 -2.578599 3.1027014
-3.2274852 -2.561882 3.1028576
-3.1743488 -2.5828114 3.1032829
-3.1244404 -2.5976784 3.1036534
-3.0775373 -2.5694635 3.1037393
-3.0322025 -2.5766056 3.1040363
-2.9852219 -2.5839508 3.1043432
-2.9361954 -2.5916743 3.1046641
-2.882884 -2.5744214 3.1048539
-2.828558 -2.5576508 3.1050522
-2.7747166 -2.5729179 3.1054468
-2.7176907 -2.5813363 3.1058164
-2.6732388 -2.5581262 3.1059198
-2.6276972 -2.5851033 3.1063406
-2.5814428 -2.5619721 3.1064546
-2.5334265 -2.5639842 3.1067343
-2.4839096 -2.5660589 3.107023
-2.4324582 -2.5729637 3.1073523
-2.3791726 -2.5792453 3.1076877
-2.3246038 -2.5808611 3.1080017
-2.2682459 -2.5825295 3.1083257
-2.2273211 -2.5980852 3.10865
-2.192698 -2.5704222 3.1086712
-2.132194 -2.5719705 3.1090174
-2.0684757 -2.5786257 3.1094136
-2.0220068 -2.5941002 3.1097682
-1.9855008 -2.5649331 3.1097906
-1.9367608 -2.5804386 3.110158
-1.8925698 -2.5749235 3.1103697
-1.8476779 -2.5688484 3.1105821
-1.7760024 -2.5690377 3.1109819
-1.7024754 -2.5698373 3.1113966
-1.6262252 -2.5706663 3.1118259
-3.6723323 -2.5192299 3.1001167
-3.6128886 -2.5113304 3.1003985
-3.569344 -2.5399837 3.1008186
-3.5098588 -2.5204334 3.1010284
-3.4624114 -2.5297258 3.1013503
-3.4162819 -2.5387602 3.1016631
-3.3789954 -2.5196462 3.101752
-3.330709 -2.510622 3.101965
-3.2775283 -2.5328093 3.1023984
-3.2164178 -2.5128803 3.1026151
-3.1681254 -2.5010462 3.1028106
-3.1329236 -2.5326576 3.1032028
-3.0692449 -2.5198474 3.103478
-3.0247822 -2.5268521 3.1037688
-2.9787049 -2.5340559 3.1040702
-2.9306211 -2.5416312 3.1043849
-2.8782883 -2.5242252 3.104568
-2.824985 -2.5072932 3.1047597
-2.7722263 -2.5227518 3.1051493
-2.7163024 -2.5310056 3.1055117
-2.6727114 -2.5077593 3.1056104
-2.6280565 -2.5346994 3.1060259
-2.5668607 -2.5186543 3.106267
-2.5202751 -2.5012262 3.1064184
-2.4695845 -2.52808 3.1068671
-2.4211545 -2.5049691 3.1069934
-2.3843105 -2.5294411 3.1073503
-2.330791 -2.5310256 3.1076579
-2.275517 -2.5326622 3.107976
-2.2184005 -2.534353 3.1083043
-2.159348 -2.5361013 3.1086438
-2.124815 -2.5085106 3.1086648
-2.0793788 -2.5297728 3.1090498
-2.0337865 -2.5449553 3.1093976
-1.9740592 -2.5239451 3.1096001
-1.9137036 -2.5024326 3.1098025
-1.862468 -2.5210812 3.1102035
-1.8106606 -2.5360806 3.1105847
-1.7735788 -2.5064535 3.1106074
-1.7199544 -2.5220518 3.1110027
-1.6640069 -2.5391021 3.1114199
-1.6255385 -2.5083671 3.1114433
-1.5674539 -2.52371 3.1118619
-3.6335015 -2.4697461 3.1000259
-3.5828867 -2.4800427 3.1003714
-3.5337183 -2.4900448 3.1007073
-3.4760599 -2.4698882 3.100903
-3.4186144 -2.493576 3.1013699
-3.3649061 -2.470988 3.1015286
-3.317548 -2.4621372 3.1017375
-3.2653899 -2.4838979 3.1021628
-3.2213538 -2.4750447 3.1023529
-3.1736207 -2.4522552 3.1024776
-3.1168237 -2.475081 3.1029353
-3.0854867 -2.4651866 3.1030483
-3.027678 -2.4714425 3.1034093
-2.9721878 -2.4841609 3.103797
-2.9250469 -2.4915876 3.1041055
-2.8736925 -2.4740288 3.1042824
-2.8214121 -2.4569359 3.1044674
-2.7697363 -2.4725854 3.1048522
-2.7149143 -2.4806747 3.1052074
-2.672184 -2.4573927 3.1053009
-2.6284156 -2.4842956 3.1057115
-2.5684502 -2.4680698 3.1059446
-2.5227964 -2.45099 3.1060927
-2.4730816 -2.477807 3.1065359
-2.4256582 -2.454658 3.1066563
-2.3712678 -2.4868486 3.1071587
-2.3208694 -2.4683199 3.1073244
-2.282788 -2.4827945 3.107626
-2.2267914 -2.4844522 3.1079481
-2.1688967 -2.4861665 3.1082809
-2.135041 -2.4591167 3.1083016
-2.090282 -2.4809198 3.1086862
-2.0280023 -2.4817772 3.1090381
-1.9635373 -2.4826643 3.1094024
-1.9277928 -2.4541054 3.1094241
-1.8772581 -2.473314 3.1098249
-1.8264282 -2.4880304 3.110199
-1.790046 -2.4589622 3.1102211
-1.7374334 -2.4742663 3.1106091
-1.6821983 -2.4918859 3.1110258
-1.6444422 -2.4617198 3.1110487
-1.58707 -2.477632 3.1114669
-1.528273 -2.4924057 3.1118858
-1.4890921 -2.4611013 3.1119096
-3.5652161 -2.4330497 3.1001782
-3.5264373 -2.4218764 3.1003249
-3.4772732 -2.4249234 3.1006174
-3.4227848 -2.4225993 3.1009064
-3.3690219 -2.4324441 3.1012669
-3.3195822 -2.4164925 3.1014431
-3.2785459 -2.4243722 3.1017203
-3.2243414 -2.4291744 3.1020517
-3.1784868 -2.4034462 3.1021473
-3.1326466 -2.4021149 3.1023946
-3.0767035 -2.4156713 3.1027904
-3.0302479 -2.4162114 3.1030521
-2.977 -2.4338386 3.1034579
-2.9194729 -2.4415445 3.103826
-2.8690968 -2.4238324 3.1039965
-2.8178391 -2.4065785 3.1041749
-2.767246 -2.4224191 3.1045547
-2.7135258 -2.4303441 3.1049027
-2.6716566 -2.4070258 3.1049914
-2.6287746 -2.4338915 3.1053967
-2.5700397 -2.4174852 3.1056218
-2.5253177 -2.400754 3.1057673
-2.4765787 -2.4275341 3.1062045
-2.430162 -2.4043472 3.1063192
-2.3767691 -2.4369001 3.1068182
-2.327379 -2.4187419 3.1069806
-2.2707772 -2.4402561 3.107429
-2.2188697 -2.4215183 3.1076019
-2.1784456 -2.4362316 3.107918
-2.1232262 -2.4208949 3.1081305
-2.0573463 -2.4466655 3.1086569
-2.0229068 -2.4191494 3.1086781
-1.9769257 -2.4337773 3.1090248
-1.9418819 -2.4057784 3.109046
-1.8920481 -2.4255469 3.1094463
-1.8243544 -2.4257257 3.1098242
-1.7549124 -2.426481 3.1102154
-1.7003896 -2.4446695 3.1106317
-1.6633459 -2.4150727 3.1106541
-1.6066861 -2.4315541 3.1110718
-1.5297503 -2.4306917 3.1114948
-1.4499112 -2.4297972 3.1119337
-3.5002322 -2.3956819 3.1003082
-3.4609804 -2.3771684 3.1004119
-3.4273145 -2.3718028 3.1005661
-3.3813236 -2.3731561 3.1008306
-3.3214221 -2.3708115 3.1011496
-3.2659018 -2.3756733 3.1014886
-3.2267587 -2.3831894 3.101753
-3.1832154 -2.3658748 3.1018882
-3.1227221 -2.3528762 3.1021442
-3.0679207 -2.3661559 3.1025319
-3.022413 -2.3666849 3.1027884
-2.9821084 -2.3887827 3.1031499
-2.9247787 -2.3857648 3.1034505
-2.864501 -2.3736362 3.1037107
-2.8142662 -2.3562212 3.1038823
-2.764756 -2.3722529 3.1042576
-2.7251945 -2.3658347 3.1044378
-2.6851051 -2.3754258 3.1047206
-2.6291337 -2.3834877 3.105082
-2.5716295 -2.3669004 3.1052992
-2.5278389 -2.3505177 3.1054416
-2.4800756 -2.3772612 3.1058731
-2.4346657 -2.3540361 3.1059821
-2.3822708 -2.3869514 3.1064777
-2.3338883 -2.369164 3.1066368
-2.2784419 -2.3902392 3.1070762
-2.2275934 -2.3718836 3.1072454
-2.1717439 -2.373313 3.1075649
-2.1120882 -2.383214 3.1079586
-2.0691261 -2.3975205 3.1082864
-2.0353754 -2.3705547 3.1083071
-1.9731426 -2.3711705 3.1086574
-1.9068382 -2.3777797 3.1090677
-1.8579632 -2.3919301 3.1094275
-1.8229804 -2.3639798 3.1094487
-1.7723913 -2.3786955 3.1098216
-1.7276766 -2.3738451 3.1100402
-1.6822497 -2.3684256 3.1102595
-1.6263022 -2.3854761 3.110677
-1.5800353 -2.3765268 3.1108789
-1.5319531 -2.3695576 3.1111033
-1.4720674 -2.3846049 3.1115301
-1.4221711 -2.3761866 3.1117554
-1.3715495 -2.3671885 3.1119814
-3.4834893 -2.3485003 3.1001089
-3.4281912 -2.3267844 3.100282
-3.3664722 -2.3249993 3.1006145
-3.3226373 -2.3250136 3.1008587
-3.2780652 -2.3166833 3.1010551
-3.2289753 -2.3371639 3.1014552
-3.172148 -2.3168731 3.1016457
-3.1272011 -2.3040559 3.1018164
-3.0843549 -2.3028116 3.1020474
-3.0257053 -2.3217316 3.1024914
-2.9751134 -2.3387961 3.1028788
-2.9297261 -2.330174 3.1030779
-2.8839064 -2.3278413 3.1033187
-2.8494794 -2.3383722 3.1035755
-2.7874281 -2.3264732 3.1038473
-2.7360919 -2.3091471 3.1040256
-2.6842918 -2.3251925 3.1044135
-2.6294928 -2.3330836 3.1047673
-2.5732188 -2.3163157 3.1049767
-2.5303602 -2.3002818 3.1051159
-2.4835725 -2.3269882 3.1055419
-2.4220157 -2.3169746 3.1058226
-2.3706822 -2.3437822 3.1062744
-2.3224995 -2.3263888 3.1064348
-2.2676115 -2.3472519 3.1068697
-2.2363174 -2.3222489 3.106889
-2.1816311 -2.3236485 3.1072021
-2.1229913 -2.3343611 3.107595
-2.0809062 -2.3483758 3.1079161
-2.025773 -2.3289816 3.1081028
-1.9700602 -2.309124 3.1082897
-1.9216281 -2.3300126 3.1086888
-1.8737308 -2.3438799 3.1090415
-1.8394476 -2.3164887 3.1090624
-1.7724171 -2.3169651 3.1094384
-1.7011534 -2.3217783 3.109865
-1.6285055 -2.3231988 3.1102784
-1.5533837 -2.3237858 3.1106999
-1.4753585 -2.3243403 3.1111379
-1.3956021 -2.322325 3.1115692
-1.3323686 -2.3358843 3.1120052
-1.2931877 -2.30458 3.1120293
-3.4283948 -2.2816586 3.1000009
-3.3778358 -2.2659678 3.1001849
-3.3271043 -2.2749226 3.100523
-3.2649043 -2.2681987 3.1008277
-3.2168369 -2.2882528 3.1012197
-3.1762545 -2.2800939 3.1013947
-3.1314383 -2.2552285 3.10149
-3.0750353 -2.2535906 3.101794
-3.0277839 -2.2717662 3.10217
-2.9778564 -2.2834702 3.1025205
-2.9236965 -2.2803707 3.1028028
-2.8787999 -2.2775512 3.1030352
-2.8337762 -2.2941635 3.1033888
-2.7843909 -2.2762117 3.1035523
-2.7341406 -2.258718 3.1037235
-2.6834788 -2.2749596 3.1041064
-2.6298518 -2.28268 3.1044526
-2.5748086 -2.2657311 3.1046541
-2.5179505 -2.2564852 3.1049132
-2.4711201 -2.2905056 3.1053848
-2.4268365 -2.2669168 3.1054852
-2.3765473 -2.2936895 3.105931
-2.3293896 -2.2766662 3.1060882
-2.2756696 -2.2970853 3.1065137
-2.2260668 -2.2795205 3.1066809
-2.1759448 -2.2615411 3.1068482
-2.1191802 -2.267797 3.1072032
-2.0764995 -2.2862983 3.1075556
-2.0170906 -2.2871158 3.1078913
-1.9841493 -2.2607968 3.1079113
-1.9364182 -2.2822454 3.1083102
-1.8727064 -2.2824135 3.1086659
-1.8073493 -2.2831244 3.1090343
-1.7731551 -2.2558043 3.109055
-1.7200571 -2.2751312 3.1094704
-1.6655344 -2.2933202 3.1098869
-1.6317977 -2.2606478 3.1098719
-1.5748142 -2.2780139 3.1102967
-1.5163795 -2.2942207 3.1107228
-1.4793754 -2.2646556 3.1107452
-1.4196547 -2.2774613 3.1111569
-1.3571606 -2.2916114 3.1115925
-1.3187189 -2.2608976 3.1116161
-1.2540071 -2.2732759 3.1120532
-3.3295057 -2.2046351 3.1000738
-3.2800906 -2.2250118 3.1004753
-3.2279692 -2.2295761 3.1007934
-3.1781011 -2.233994 3.1010985
-3.1208925 -2.205972 3.1012433
-3.0657158 -2.2043695 3.1015406
-3.0194917 -2.2221498 3.1019082
-2.9706497 -2.2335994 3.1022511
-2.9176669 -2.2305675 3.1025271
-2.8736935 -2.2272615 3.1027517
-2.8297014 -2.2440603 3.1031008
-2.7813537 -2.2259502 3.1032577
-2.7321897 -2.2082891 3.1034217
-2.6826658 -2.2247264 3.1037993
-2.6302109 -2.232276 3.1041379
-2.5763981 -2.2151465 3.1043315
-2.5062039 -2.2124026 3.1047051
-2.4749293 -2.2404821 3.1050534
-2.4316571 -2.2168593 3.1051478
-2.3679144 -2.2320132 3.1055965
-2.3191433 -2.2334571 3.1058772
-2.2687464 -2.2349491 3.1061668
-2.2166412 -2.2364919 3.1064665
-2.1861708 -2.2121472 3.1064851
-2.1305218 -2.2187982 3.1068363
