# .PCD v0.7 - Point Cloud Data file format
VERSION 0.7
FIELDS x y z
SIZE 4 4 4
TYPE F F F
COUNT 1 1 1
WIDTH 1534
HEIGHT 1
VIEWPOINT 0 0 0 1 0 0 0
POINTS 1534
DATA ascii
-2.0894194 7.0770226 0.57425332
-2.0458143 7.0970125 0.5789969
-2.0024102 7.1167102 0.56210279
-1.9585725 7.1370387 0.59190047
-1.9151578 7.1567516 0.57614517
-1.8717431 7.1764646 0.56038994
-1.8278632 7.1968546 0.59474283
-5.664113 5.4414482 0.6281352
-5.6203508 5.4616156 0.64199275
-5.5772867 5.4809465 0.60800779
-5.5335078 5.5011339 0.62300444
-5.4897294 5.5213208 0.63800102
-5.4465985 5.5407319 0.60857254
-5.4028034 5.5609393 0.62470824
-5.3590078 5.5811462 0.64084399
-5.3235998 5.5970411 0.61290079
-5.2807612 5.6168184 0.6297918
-5.2382069 5.6362553 0.62719136
-5.1672459 5.6686954 0.62545621
-5.1104474 5.6946831 0.62607288
-5.0743546 5.7111797 0.62484878
-5.0391779 5.7272639 0.62429863
-4.9974613 5.7463832 0.62774742
-4.955729 5.7655215 0.63228589
-4.9302835 5.7769656 0.614245
-4.8894081 5.7957339 0.62081957
-4.8371611 5.8196316 0.62071216
-4.7857351 5.8431749 0.62253386
-4.7355604 5.8661685 0.62653291
-4.6800327 5.8915453 0.62436885
-4.6293745 5.9147053 0.62330794
-4.5757565 5.9392281 0.62219131
-4.522634 5.9635577 0.62273586
-4.4716463 5.9870038 0.63214552
-4.4170837 6.0119586 0.6287722
-4.3737063 6.031826 0.62891066
-4.3455057 6.0445662 0.61148477
-4.315764 6.0582871 0.62145478
-4.2773209 6.0758753 0.61964768
-4.2365813 6.0947862 0.64488137
-4.2169113 6.1035509 0.6205734
-4.1752038 6.1226807 0.6234659
-4.1393437 6.13904 0.61707318
-4.0787711 6.1669607 0.63489997
-4.0274706 6.1902971 0.61918837
-3.9807622 6.2118506 0.63531446
-3.928205 6.2357173 0.61503053
-3.8764534 6.2594891 0.62209356
-3.8241429 6.2835875 0.63614798
-3.7751508 6.3060265 0.63636369
-3.7261589 6.3284664 0.63657945
-3.6869652 6.3464174 0.63675207
-3.6673684 6.3553934 0.63683838
-3.6281745 6.3733454 0.63701099
-3.582103 6.3941698 0.60956597
-3.5616052 6.4035583 0.60965627
-3.5232592 6.4211917 0.61681396
-3.4882462 6.4373689 0.63094568
-3.4570358 6.4514065 0.60543448
-3.4226761 6.4672766 0.61878735
-3.3742406 6.4895005 0.62294394
-3.3264863 6.5114074 0.62654865
-3.2682645 6.5381002 0.62936628
-3.2287555 6.556314 0.64133626
-3.1815882 6.5778255 0.63231993
-3.1493917 6.5923376 0.60905254
-3.1236949 6.604259 0.62432146
-3.0655632 6.6309013 0.62621939
-3.0144699 6.654211 0.6172365
-2.9760177 6.6718402 0.61916161
-2.9457507 6.6857843 0.62731087
-2.9026501 6.7054281 0.61787081
-2.8836288 6.7142859 0.63415134
-2.830174 6.7386112 0.62058294
-2.7858944 6.7589369 0.62818259
-2.7353959 6.7819834 0.62253737
-2.6762576 6.8090897 0.62843621
-2.6312962 6.8295522 0.61721635
-2.577657 6.8540921 0.61764508
-2.5225377 6.8793311 0.62047333
-2.4664731 6.9050226 0.62538731
-2.4239094 6.9244628 0.62223089
-2.3813355 6.9439182 0.62018794
-2.3226695 6.9708538 0.63101941
-2.2797632 6.9903097 0.61263013
-2.2196159 7.0179529 0.6266439
-2.1760266 7.03792 0.62967914
-2.1326225 7.0576177 0.61278504
-2.0888166 7.0778999 0.6391663
-2.0454021 7.0976129 0.623411
-2.0019872 7.1173258 0.6076557
-1.9611688 7.1362934 0.63961196
-1.9167336 7.1564803 0.62465554
-1.8722984 7.1766677 0.60969919
-1.8273981 7.1975322 0.64485109
-5.6633816 5.4423237 0.67825592
-5.6186185 5.4629397 0.69127011
-5.5765886 5.4817829 0.65585029
-5.5328264 5.5019498 0.66970778
-5.4890642 5.5221171 0.68356532
-5.4456263 5.5418963 0.67521024
-5.4021716 5.5616951 0.66799432
-5.3583927 5.5818825 0.68299097
-5.3149128 5.6017113 0.67748368
-5.2714167 5.6215606 0.67311549
-5.2276216 5.6417675 0.68925124
-5.173665 5.6662626 0.67201924
-5.1096673 5.6956172 0.67953491
-5.0670729 5.7151027 0.67971903
-5.0244617 5.7346077 0.68101692
-4.9685512 5.7601027 0.67365611
-4.9135356 5.7852116 0.6684221
-4.8717875 5.8043685 0.67405003
-4.8230815 5.8266096 0.67049354
-4.7662992 5.8526163 0.67360175
-4.7202072 5.8737016 0.67378986
-4.6650844 5.8989992 0.68152571
-4.6203117 5.919445 0.67833114
-4.5790997 5.9383039 0.67907512
-4.5517559 5.9507842 0.67654425
-4.5247211 5.9631329 0.67492169
-4.4781618 5.9844785 0.67787266
-4.4477758 5.9982905 0.66752005
-4.42172 6.0102835 0.67347574
-4.3872705 6.0261216 0.67958939
-4.3437414 6.0461292 0.6867789
-4.3190336 6.0572486 0.66716146
-4.2663741 6.0814352 0.67411429
-4.2171726 6.1041174 0.68899214
-4.1778512 6.1219192 0.66840357
-4.1292391 6.1442447 0.67458808
-4.1032119 6.1560035 0.65850091
-4.0731573 6.1701012 0.69177318
-4.0333118 6.188097 0.66654658
-3.9775972 6.2138243 0.68763155
-3.9301498 6.2353706 0.66931933
-3.8759239 6.2601767 0.66644776
-3.825994 6.2832413 0.68625164
-3.7990484 6.2955832 0.68637025
-3.7721028 6.3079252 0.68648893
-3.7271936 6.328495 0.68668669
-3.6912661 6.3449502 0.68684494
-3.6643205 6.3572922 0.68696368
-3.6283927 6.3737478 0.68712187
-3.5846791 6.3934751 0.65793848
-3.5562973 6.4064741 0.65806353
-3.5235572 6.4215999 0.67111003
-3.4846523 6.4395137 0.68075007
-3.4579704 6.4514322 0.65069264
-3.4254031 6.4666195 0.67786062
-3.3689077 6.492332 0.66173488
-3.3500795 6.5009556 0.66181779
-3.3286014 6.5110106 0.68361658
-3.2728662 6.5364084 0.67087287
-3.2175219 6.5617638 0.67171347
-3.1748457 6.5813484 0.67571545
-3.1486356 6.5934525 0.68573862
-3.1237335 6.6047912 0.67917383
-3.0841281 6.6229033 0.67660487
-3.037241 6.6442251 0.66140127
-3.0212579 6.6517863 0.68545902
-2.9755239 6.6726074 0.67351425
-2.9279296 6.694313 0.66557801
-2.9050813 6.7050223 0.69343191
-2.8713298 6.7202582 0.67154276
-2.8254778 6.7411771 0.66559124
-2.8058226 6.7502823 0.67793626
-2.7651496 6.7687802 0.66638494
-2.7180431 6.7904472 0.67931783
-2.6604483 6.8167629 0.67610765
-2.6276016 6.8317642 0.67353857
-2.593823 6.8471975 0.67160285
-2.55128 6.8666077 0.66621935
-2.5085769 6.8862514 0.67809534
-2.4660079 6.9056997 0.67549556
-2.4301789 6.922101 0.6768145
-2.3933752 6.9389548 0.67884618
-2.335288 6.9655318 0.67947674
-2.262835 6.9985247 0.66346735
-2.2190609 7.0187612 0.68643212
-2.1756461 7.0384741 0.67067683
-2.1355705 7.0568657 0.67717946
-2.0722566 7.0858254 0.67700285
-2.005604 7.116106 0.65456831
-1.960736 7.1369233 0.68622428
-1.91629 7.1571264 0.6724332
-1.8718441 7.1773291 0.65864217
-1.8269328 7.1982093 0.69495928
-5.6626501 5.4431992 0.72837669
-5.6179042 5.4637947 0.74022532
-5.5738559 5.4835553 0.70428431
-5.5290928 5.5041714 0.71729851
-5.4843297 5.5247874 0.73031271
-5.4395671 5.545403 0.74332696
-5.4015398 5.5624518 0.71128041
-5.3577776 5.5826192 0.72513795
-5.3140154 5.6027865 0.73899549
-5.2708349 5.6222568 0.71298426
-5.227056 5.6424441 0.72798091
-5.1835518 5.662303 0.72418225
-5.1400304 5.6821818 0.72152275
-5.0814018 5.7090473 0.72595257
-5.0237303 5.7354836 0.73113757
-4.9811277 5.7549787 0.73187852
-4.938736 5.7742209 0.71814018
-4.8960924 5.7937651 0.72166562
-4.8622899 5.8092318 0.72212648
-4.8294034 5.8242874 0.72326124
-4.7876472 5.8434539 0.72943401
-4.7659101 5.8530817 0.70026177
-4.7353458 5.8673754 0.72923112
-4.6775131 5.8937569 0.72251838
-4.6307468 5.9151778 0.7252382
-4.5760431 5.9401903 0.72434628
-4.5231228 5.9644217 0.72661847
-4.4710326 5.9882274 0.72445244
-4.4215536 6.01092 0.72904974
-4.3675752 6.0356636 0.73163199
-4.3495026 6.0436745 0.70510429
-4.3117056 6.0612397 0.73052722
-4.2701373 6.0802541 0.72819197
-4.2443504 6.0919399 0.71588171
-4.2167683 6.1046848 0.72712564
-4.1778293 6.1224871 0.72401524
-4.1272235 6.1457868 0.73631585
-4.1046762 6.1559725 0.72232974
-4.0591898 6.1769938 0.74123192
-4.0301714 6.1900816 0.7210381
-4.0020661 6.2028475 0.71053207
-3.963562 6.220767 0.73899055
-3.9221168 6.2395391 0.71814179
-3.8750124 6.2609806 0.70504367
-3.8262126 6.2836447 0.73636246
-3.793551 6.2986035 0.73650628
-3.7690549 6.3098235 0.73661417
-3.7282283 6.3285232 0.73679399
-3.6955669 6.3434825 0.73693782
-3.6710708 6.3547025 0.73704571
-3.6276653 6.3744802 0.72686887
-3.5888317 6.3920579 0.70630401
-3.5628152 6.4039741 0.70641863
-3.5221972 6.4228387 0.73263633
-3.4705029 6.4463162 0.7128731
-3.4533556 6.4541702 0.71294868
-3.4253528 6.4672308 0.73652005
-3.3746157 6.4902081 0.71064246
-3.3325679 6.509697 0.73375857
-3.2778633 6.5346899 0.72766185
-3.2475891 6.5484157 0.71385491
-3.2261753 6.558351 0.72657895
-3.1718283 6.5832024 0.72279525
-3.1150548 6.6091576 0.71822327
-3.0710998 6.6293669 0.72604555
-3.0390737 6.6441989 0.74391776
-3.0051341 6.6595035 0.72008169
-2.9728117 6.6743555 0.72738492
-2.9446745 6.6872487 0.72979659
-2.9048779 6.7053189 0.71535432
-2.8868277 6.7137833 0.73782015
-2.8396912 6.7352004 0.72219467
-2.8055952 6.7506137 0.70245713
-2.7849641 6.7602916 0.72839898
-2.7321997 6.7844133 0.72692049
-2.6784902 6.8089867 0.72746724
-2.6359525 6.8283892 0.72152698
-2.5934043 6.8478069 0.7167002
-2.5508459 6.8672404 0.71298701
-2.5235558 6.8799081 0.73294497
-2.4801624 6.8995905 0.71491206
-2.4798558 6.9000368 0.74793786
-2.4364517 6.9197345 0.73104376
-2.3928835 6.9396706 0.73180139
-2.3275976 6.9694786 0.7258203
-2.2673454 6.997016 0.72324693
-2.2277799 7.0151706 0.72935015
-2.1833446 7.0353575 0.71439379
-2.13852 7.0561118 0.7413885
-2.094074 7.0763149 0.72759742
-2.049628 7.0965176 0.71380639
-2.004971 7.1170278 0.7227388
-1.9603032 7.1375532 0.73283654
-1.9158465 7.1577721 0.72021079
-1.8713896 7.1779904 0.70758504
-1.8264676 7.1988869 0.74506742
-5.6619186 5.4440746 0.77849734
-5.6171899 5.4646497 0.78918034
-5.5728092 5.484808 0.77596861
-5.5284123 5.5049858 0.76392251
-5.4836664 5.5255814 0.77577108
-5.4389205 5.5461769 0.78761971
-5.379673 5.5731425 0.77505493
-5.3052783 5.6072512 0.78236955
-5.2653842 5.6254101 0.77411836
-5.226491 5.6431208 0.76671052
-5.1827288 5.6632881 0.78056806
-5.1392326 5.6831369 0.77619988
-5.0667005 5.7162647 0.77157754
-5.0086441 5.7428026 0.76993001
-4.9648485 5.76301 0.78606576
-4.9380531 5.7750382 0.76491952
-4.8954344 5.7945533 0.7667743
-4.8525877 5.8143406 0.78422213
-4.8101473 5.8336411 0.77382517
-4.7674794 5.8532143 0.77902132
-4.7193861 5.8751731 0.7753008
-4.6619334 5.9014869 0.7784605
-4.616498 5.9222708 0.77856994
-4.5724764 5.9423056 0.76914287
-4.5239449 5.9645824 0.77636707
-4.488616 5.9806552 0.76822537
-4.4492745 5.9988184 0.78373748
-4.4354553 6.0049453 0.76575488
-4.3899355 6.0258479 0.77305186
-4.3425193 6.0476379 0.78143787
-4.3190413 6.0582829 0.77070969
-4.2830176 6.0748301 0.77562714
-4.2385292 6.0953403 0.78906024
-4.2165999 6.1051707 0.76787418
-4.164135 6.1292701 0.77506059
-4.1273417 6.1461163 0.77459824
-4.1048598 6.1565986 0.79315948
-4.0869207 6.1645665 0.76844162
-4.0322733 6.189734 0.78242248
-4.0032735 6.2028809 0.76899058
-3.9714019 6.2175674 0.77799481
-3.9248731 6.2388411 0.77436507
-3.8770146 6.2605886 0.75745064
-3.8174486 6.2881603 0.78651297
-3.773356 6.3083563 0.7867071
-3.7292631 6.3285518 0.78690135
-3.6925189 6.3453813 0.78706306
-3.6631236 6.3588448 0.78719246
-3.6205783 6.3781123 0.76549196
-3.5866771 6.3935299 0.75469738
-3.566083 6.4030437 0.76285195
-3.5354052 6.4172764 0.78110945
-3.479924 6.4424896 0.7615515
-3.4545627 6.4542031 0.77140713
-3.4306095 6.4653769 0.79175389
-3.378639 6.4889755 0.77145261
-3.3539927 6.5005136 0.79646635
-3.317461 6.5169973 0.77180588
-3.2724121 6.5377007 0.77900487
-3.2231679 6.5601587 0.7695834
-3.1824393 6.5788574 0.77415109
-3.1386104 6.5987649 0.75765538
-3.1281345 6.603848 0.7863847
-3.0809634 6.6253238 0.77495903
-3.038903 6.6444478 0.76232493
-3.0189083 6.6538219 0.78695583
-2.9733903 6.6745663 0.77866828
-2.9273872 6.6954517 0.76163185
-2.9094493 6.7038636 0.7839582
-2.8678868 6.7227712 0.77270049
-2.8372633 6.7368464 0.77998567
-2.8058143 6.7511997 0.77646649
-2.7632971 6.7705722 0.76829922
-2.7206454 6.7901406 0.7746076
-2.6659198 6.8152065 0.77813387
-2.6186986 6.8367567 0.77270317
-2.5668068 6.8604341 0.76635194
-2.5231118 6.8805552 0.78077549
-2.4795492 6.9004831 0.78096372
-2.4208274 6.927309 0.77719206
-2.3610854 6.9546089 0.77421921
-2.3164771 6.9750481 0.77790779
-2.271858 6.9955034 0.78276169
-2.227412 7.0157061 0.76897061
-2.1827767 7.0361848 0.77557242
-2.1381304 7.0566788 0.78333956
-2.0936737 7.0768976 0.77071381
-2.049217 7.097116 0.75808805
-2.0043383 7.1179495 0.79090923
-1.9598706 7.1381836 0.77944875
-1.9154029 7.1584182 0.76798832
-1.8709353 7.1786523 0.75652784
-1.8260025 7.199564 0.79517561
-5.6611872 5.4449506 0.82861805
-5.6164751 5.4655056 0.83813548
-5.5717635 5.4860601 0.84765285
-5.5277319 5.5058002 0.81054634
-5.4830031 5.5263753 0.82122934
-5.4382739 5.5469508 0.8319124
-5.3935452 5.5675259 0.8425954
-5.3494287 5.587368 0.81131691
-5.3046827 5.6079636 0.82316554
-5.2599368 5.6285591 0.8350141
-5.2154713 5.648819 0.82763034
-5.1709895 5.6690989 0.82141215
-5.1262264 5.6897144 0.83442634
-5.0760369 5.7125812 0.82595479
-5.0079212 5.7436686 0.81948113
-4.9641504 5.7638454 0.8339082
-4.9208288 5.7834854 0.81757939
-4.8770418 5.8036823 0.83314562
-4.8214998 5.8290014 0.82503271
-4.7668943 5.8539147 0.8191179
-4.7240477 5.873702 0.83656573
-4.6815586 5.8930612 0.82951015
-4.6615839 5.9019055 0.80243129
-4.6292477 5.9169869 0.8293004
-4.5720367 5.9430923 0.82334125
-4.5250058 5.9646392 0.826473
-4.468534 5.9903841 0.8184433
-4.4165239 6.0142145 0.82225025
-4.3642249 6.0381365 0.82219434
-4.3113666 6.0623326 0.82335836
-4.2647204 6.0837584 0.83030647
-4.2460976 6.0921154 0.81313455
-4.2104259 6.1086941 0.83725899
-4.1768622 6.12392 0.8227663
-4.1372123 6.1420417 0.81907541
-4.0732284 6.1713805 0.82260787
-4.0220575 6.194973 0.8383438
-3.9904354 6.2092285 0.8157348
-3.9277546 6.2380991 0.83204919
-3.8760176 6.2615633 0.80906451
-3.8245151 6.2853117 0.82507366
-3.7956204 6.2986608 0.83672082
-3.7694912 6.3106284 0.83683586
-3.7237654 6.3315716 0.83703732
-3.6911042 6.3465314 0.83718109
-3.6649752 6.3584991 0.83729619
-3.6160579 6.380558 0.80295175
-3.5833325 6.3956199 0.81035346
-3.5614283 6.4057932 0.82449687
-3.5245132 6.4226952 0.82409364
-3.4830494 6.4416237 0.81796932
-3.4585104 6.4530058 0.83230996
-3.4233353 6.4690933 0.83012128
-3.386111 6.4861708 0.83306181
-3.3304389 6.5116363 0.82990402
-3.272557 6.5381079 0.82624888
-3.2158387 6.5640635 0.8242287
-3.1641328 6.5876946 0.81999826
-3.1432226 6.5975327 0.84898472
-3.1078515 6.6134996 0.82599467
-3.0766909 6.6278048 0.83161515
-3.0490656 6.6404548 0.83306718
-3.0084171 6.658917 0.81885052
-2.9715402 6.6758709 0.82807744
-2.9330091 6.6936007 0.83938468
-2.9092469 6.7041578 0.80574435
-2.8905072 6.7129507 0.82954717
-2.847887 6.7324743 0.832515
-2.8054731 6.7516966 0.81321251
-2.7734289 6.7664533 0.82392895
-2.7404022 6.7816744 0.83620596
-2.6751716 6.8114018 0.82424599
-2.6097932 6.8413444 0.82822955
-2.57482 6.8573656 0.83073765
-2.538826 6.8738604 0.83404469
-2.494391 6.8940477 0.81908834
-2.4349313 6.9212737 0.82206428
-2.3605824 6.9553413 0.8284061
-2.3159578 6.9758043 0.83384258
-2.2715011 6.9960227 0.82121682
-2.2268603 7.0165095 0.82840127
-2.1822088 7.0370116 0.83675098
-2.1377411 7.0572462 0.82529056
-2.0734816 7.0866914 0.83085346
-2.0488057 7.0977149 0.80236965
-2.0081522 7.1166348 0.83733666
-1.9626149 7.1373672 0.82679641
-1.9170774 7.1580992 0.81625617
-1.87154 7.1788316 0.80571586
-1.8255373 7.2002416 0.84528387
-5.6604562 5.4458261 0.87873882
-5.614697 5.4668493 0.88728946
-5.5689383 5.4878726 0.89584017
-5.5270514 5.5066152 0.85717028
-5.4823394 5.5271697 0.86668772
-5.4376278 5.5477247 0.87620509
-5.3929157 5.5682793 0.88572252
-5.3485103 5.5884676 0.87425911
-5.3040876 5.608676 0.8639614
-5.2593584 5.6292515 0.8746444
-5.2146297 5.6498265 0.8853274
-5.1701727 5.6700759 0.87736082
-5.125699 5.6903458 0.87055993
-5.0809531 5.7109413 0.8824085
-5.0364542 5.7312417 0.87735593
-4.9919376 5.7515621 0.873469
-4.9232473 5.7830882 0.88323128
-4.8763933 5.8044591 0.87757081
-4.832839 5.8243775 0.87718946
-4.7894673 5.8440771 0.86427796
-4.7311459 5.8709335 0.88085622
-4.6810226 5.8937035 0.86626536
-4.6582804 5.9044595 0.89901596
-4.6383548 5.9132767 0.87146151
-4.5958328 5.9326744 0.86663347
-4.5529699 5.9524813 0.88519514
-4.5229864 5.966116 0.87777072
-4.479538 5.9858994 0.86931312
-4.4372959 6.0051556 0.86323094
-4.3827128 6.0302787 0.87764895
-4.3427067 6.048635 0.88286698
-4.3213959 6.0582728 0.87269187
-4.2828884 6.0758514 0.86939299
-4.2366743 6.0971327 0.88242012
-4.2271838 6.101243 0.85957783
-4.1802979 6.1228909 0.87710559
-4.1313963 6.1453686 0.88523304
-4.112586 6.1537709 0.86403495
-4.0708194 6.1730251 0.87662411
-4.0417585 6.1861906 0.86229658
-4.0076394 6.2021008 0.89063919
-3.9774828 6.2156734 0.86685342
-3.9242516 6.2402668 0.88825506
-3.876909 6.2616954 0.86292267
-3.8299518 6.2833781 0.88063353
-3.7999215 6.2971931 0.88681376
-3.7713428 6.3102827 0.88693953
-3.7256169 6.3312263 0.88714093
-3.6913223 6.3469343 0.88729203
-3.6637468 6.3596048 0.8914454
-3.627171 6.3761616 0.87202263
-3.5863147 6.3948364 0.86839235
-3.5628781 6.4057074 0.88219988
-3.5248938 6.4230571 0.87749946
-3.4784725 6.4443226 0.87805963
-3.4590268 6.4534259 0.89779562
-3.4199712 6.4710503 0.87161893
-3.377286 6.4905963 0.87134647
-3.3568499 6.5000486 0.88060737
-3.323406 6.5153303 0.87709755
-3.2865653 6.5322833 0.8851856
-3.2488515 6.5492625 0.85596609
-3.2389691 6.554018 0.87963909
-3.1850815 6.5786414 0.87663192
-3.1430771 6.5977445 0.86464351
-3.1257 6.6058936 0.88627213
-3.0799778 6.6267262 0.8774389
-3.0337324 6.6477308 0.86130357
-3.0178056 6.6552014 0.88133013
-2.9753141 6.6745367 0.87037909
-2.9327145 6.6940298 0.87111992
-2.914098 6.7027688 0.8952412
-2.8771315 6.7195377 0.88004851
-2.8271999 6.7422948 0.87113297
-2.7835684 6.7623234 0.87872362
-2.728302 6.7876587 0.88468277
-2.6843772 6.8076086 0.86932695
-2.6275613 6.833683 0.87852383
-2.5829799 6.8540831 0.8792991
-2.5383878 6.8744984 0.88123965
-2.4939365 6.8947096 0.86803126
-2.4195824 6.9287853 0.87495577
-2.3600793 6.9560742 0.8825928
-2.3156116 6.9763083 0.87113231
-2.2711439 6.9965429 0.85967189
-2.2358396 7.0129733 0.89003795
-2.1903021 7.0337057 0.87949771
-2.1447647 7.0544381 0.86895746
-2.0762537 7.0858345 0.87521857
-2.0077314 7.1172481 0.88267273
-1.9621829 7.1379962 0.87332547
-1.9166344 7.1587448 0.86397827
-1.8710859 7.179493 0.85463107
-1.8250721 7.2009187 0.89539206
-5.6597247 5.4467015 0.92885953
-5.6139832 5.4677038 0.93621683
-5.5682416 5.4887066 0.94357413
-5.5231791 5.5088964 0.90439081
-5.4774199 5.5299196 0.91294146
-5.4316611 5.5509429 0.92149216
-5.3859019 5.5719662 0.9300428
-5.3401427 5.5929899 0.93859345
-5.3034921 5.6093893 0.90475732
-5.2765818 5.6219788 0.93070942
-5.2140684 5.6504989 0.92379212
-5.1693563 5.6710534 0.93330956
-5.124908 5.6912928 0.92476022
-5.0804429 5.7115521 0.9173764
-5.0357141 5.7321272 0.92805946
-4.9912233 5.7524176 0.92242408
-4.9316473 5.7797766 0.93239421
-4.8574362 5.8136644 0.92708158
-4.8128862 5.8340259 0.92552578
-4.7888689 5.8447933 0.90528584
-4.7681231 5.8546419 0.93853998
-4.716054 5.8782597 0.92002833
-4.6577568 5.9050865 0.93489784
-4.6143188 5.9248657 0.92654276
-4.5830173 5.9390659 0.91566736
-4.5525069 5.9530358 0.91693825
-4.5155077 5.970119 0.93167776
-4.4620996 5.9943728 0.91534364
-4.4171815 6.0150414 0.9266749
-4.3636713 6.0395217 0.92697257
-4.3141189 6.0622149 0.92951161
-4.2602038 6.0868273 0.92492372
-4.2106442 6.1095557 0.93041033
-4.1626573 6.1314754 0.92709708
-4.141284 6.1410418 0.90532106
-4.1085753 6.1563702 0.94008154
-4.0811138 6.1687689 0.92234665
-4.0341892 6.190249 0.92128932
-3.976418 6.2167916 0.92976022
-3.924376 6.2406931 0.93641323
-3.902281 6.2507496 0.93021071
-3.8772285 6.2621026 0.91817582
-3.8206627 6.2882042 0.93770975
-3.7715611 6.3106852 0.93705046
-3.722569 6.3331251 0.93726629
-3.6931736 6.3465886 0.93739563
-3.6700516 6.3572307 0.94268149
-3.6259122 6.3773141 0.92951274
-3.5891623 6.3940992 0.9249891
-3.56283 6.4063182 0.94086999
-3.520546 6.4254813 0.92070526
-3.4901974 6.439528 0.93546993
-3.4501386 6.4575868 0.90681642
-3.4324729 6.465929 0.9318946
-3.3760476 6.4917145 0.92631745
-3.3220992 6.5163765 0.92208648
-3.2670734 6.5415759 0.924052
-3.2169216 6.5644598 0.91796756
-3.1716378 6.5852633 0.92757577
-3.1450002 6.5976024 0.94424838
-3.1072097 6.614717 0.92567629
-3.0600383 6.6362429 0.92011917
-3.0442789 6.6437225 0.94933993
-3.0119896 6.6581917 0.91691893
-2.9632759 6.6804647 0.91583037
-2.9137969 6.703208 0.9276976
-2.8702815 6.7230668 0.9227612
-2.8383696 6.7376652 0.9228726
-2.8053236 6.752903 0.93601871
-2.7608829 6.773098 0.92164493
-2.7161937 6.7936554 0.93407333
-2.671742 6.8138661 0.92086494
-2.6271555 6.8342738 0.92222279
-2.5825582 6.8546972 0.92474604
-2.5379498 6.8751364 0.92843455
-2.4934821 6.895371 0.91697413
-2.463527 6.9093118 0.94273931
-2.433502 6.9228249 0.91885632
-2.372452 6.9507766 0.92165875
-2.3267429 6.9717588 0.92961085
-2.2811999 6.9924994 0.91966712
-2.2354741 7.0135059 0.92940873
-2.1899257 7.0342541 0.92006153
-2.144377 7.0550027 0.91071433
-2.0833759 7.0830593 0.92728233
-2.0073106 7.1178603 0.92800868
-1.9617509 7.1386251 0.91985452
-1.9161913 7.1593895 0.91170037
-1.8706317 7.1801543 0.90354621
-1.8246069 7.2015958 0.9455002
-5.6589932 5.4475775 0.97898018
-5.6132689 5.4685593 0.98514414
-5.5675449 5.4895411 0.99130809
-5.5221605 5.5101156 0.9742018
-5.476758 5.5307117 0.95828879
-5.4310164 5.5517139 0.96564609
-5.3852749 5.5727167 0.97300339
-5.3395333 5.5937195 0.98036069
-5.2937918 5.6147218 0.98771805
-5.2483377 5.6353803 0.97538507
-5.2028656 5.6560597 0.96424544
-5.1571064 5.677083 0.97279608
-5.1113477 5.6981068 0.98134679
-5.0727606 5.7156467 0.97112089
-5.0275249 5.7364359 0.98015493
-4.990509 5.753273 0.97137922
-4.9161367 5.7873549 0.97713965
-4.8565855 5.8146825 0.98536146
-4.8122735 5.8347588 0.96748734
-4.7675362 5.8553443 0.97875309
-4.7231731 5.8754816 0.96437573
-4.6784191 5.8960876 0.97680718
-4.623827 5.9209762 0.96914929
-4.5765009 5.9426627 0.9727003
-4.5264454 5.9656181 0.9781791
-4.477582 5.9878349 0.96573436
-4.4341106 6.0078921 0.98174208
-4.3849249 6.0303164 0.97480398
-4.3344188 6.0533905 0.9722594
-4.2842188 6.0763683 0.97365016
-4.2422256 6.0957236 0.9872815
-4.228456 6.1018248 0.96898925
-4.1799536 6.1240549 0.97306871
-4.1319661 6.1460977 0.98165303
-4.1176529 6.1523957 0.95832217
-4.0740581 6.172524 0.97449547
-4.0278587 6.1938243 0.98871058
-4.0105834 6.2015085 0.96598899
-3.9698355 6.220336 0.98255277
-3.934634 6.2363372 0.97054672
-3.9029176 6.2510529 0.98953158
-3.874069 6.2641072 0.97379637
-3.8232136 6.2874217 0.9762212
-3.7966506 6.2997828 0.99569172
-3.7742288 6.3099661 0.98715049
-3.7252371 6.332406 0.98736632
-3.6925755 6.3473649 0.98751009
-3.6701367 6.3577118 0.99452096
-3.6173489 6.3815904 0.96490306
-3.5879364 6.3952456 0.98329806
-3.5674102 6.4047709 0.99572551
-3.5199976 6.4262867 0.97589493
-3.4851739 6.4421721 0.96964693
-3.4599891 6.4537354 0.97261345
-3.4219794 6.4711556 0.97390378
-3.3880403 6.4867373 0.97776318
-3.3578289 6.5003853 0.95891732
-3.3314252 6.5126009 0.97372365
-3.2798009 6.5362229 0.97465372
-3.2353873 6.5566111 0.98246616
-3.1903262 6.5771456 0.97401941
-3.144783 6.5979185 0.96763217
-3.116679 6.610806 0.97104347
-3.0875931 6.624156 0.975914
-3.0440249 6.6440916 0.9766717
-3.0096149 6.6597991 0.9730863
-2.9701443 6.677815 0.96894002
-2.9386454 6.692318 0.9791398
-2.8941021 6.7126632 0.97583652
-2.8495479 6.7330232 0.9736985
-2.8048692 6.7535648 0.98496157
-2.760407 6.7737913 0.97291839
-2.7158203 6.794199 0.97427636
-2.6812835 6.8100424 0.97912824
-2.624234 6.8360553 0.97020531
-2.5544579 6.8680573 0.97932947
-2.5089149 6.8887978 0.96938574
-2.4632168 6.9097638 0.97614479
-2.4176683 6.930512 0.96679759
-2.3719535 6.9515023 0.97534621
-2.3262279 6.9725089 0.98508781
-2.2806683 6.9932733 0.9769336
-2.2351086 7.0140376 0.96877944
-2.189549 7.0348024 0.96062529
-2.1437955 7.0558491 0.97334957
-2.0752459 7.0873022 0.98378628
-2.0068896 7.1184731 0.97334462
-1.961319 7.1392536 0.96638352
-1.9157482 7.1600347 0.95942241
-1.8701776 7.1808152 0.9524613
-1.8241417 7.2022734 0.99560839
-5.6582618 5.4484529 1.029101
-5.612555 5.4694138 1.0340717
-5.5668483 5.4903746 1.0390422
-5.5211415 5.5113354 1.0440128
-5.4757652 5.5319004 1.0263097
-5.4303722 5.5524859 1.0098
-5.3846478 5.5734677 1.0159639
-5.3389239 5.594449 1.0221279
-5.2931995 5.6154308 1.0282919
-5.2474751 5.6364126 1.0344559
-5.2020297 5.6570606 1.0215263
-5.1562967 5.6780524 1.0282869
-5.1108251 5.6987319 1.0171473
-5.0650835 5.7197347 1.0245045
-5.0193419 5.740737 1.0318619
-4.973835 5.7614579 1.023109
-4.9280849 5.7824707 1.031063
-4.8825521 5.8032236 1.0241001
-4.8242273 5.8298693 1.0210497
-4.7910342 5.8452702 1.0412014
-4.7669492 5.8560472 1.0189662
-4.7300415 5.8730164 1.0270255
-4.6777039 5.8969431 1.0257623
-4.6331539 5.917304 1.0242066
-4.5885868 5.937686 1.0238163
-4.5440025 5.9580879 1.0245918
-4.478126 5.9882436 1.0266565
-4.4243956 6.0128508 1.0293999
-4.3689408 6.0381722 1.0253323
-4.3179774 6.0614715 1.0241351
-4.2689638 6.0838675 1.0219591
-4.2420349 6.095952 1.0003564
-4.2051172 6.1130934 1.0239223
-4.1685743 6.1298661 1.0292472
-4.1468096 6.1396551 1.0138023
-4.1070786 6.1580658 1.0357443
-4.0740986 6.173017 1.0233057
-4.0431514 6.1870818 1.0144447
-4.0041785 6.2051849 1.0399935
-3.9787128 6.2166886 1.0242766
-3.9300137 6.2389584 1.0209585
-3.8732703 6.2650681 1.0331696
-3.8342741 6.2826805 1.0085406
-3.7976496 6.2998104 1.0440712
-3.7731242 6.3109941 1.039242
-3.7246387 6.3331823 1.0374806
-3.6928368 6.3477821 1.0410767
-3.6778164 6.3546972 1.0445989
-3.6266599 6.377851 1.0172101
-3.5904732 6.3946686 1.0416287
-3.5571909 6.4095736 1.0079706
-3.5358961 6.4195604 1.0313014
-3.4825871 6.4438972 1.0235664
-3.4665475 6.4514599 1.0457754
-3.4283433 6.4687023 1.0208626
-3.3756156 6.4928188 1.0203869
-3.3569915 6.5016046 1.0491121
-3.3219879 6.5173564 1.0210422
-3.2719872 6.5402141 1.0195899
-3.2206819 6.5637751 1.0295827
-3.1709712 6.5864668 1.024541
-3.1236258 6.60811 1.0229779
-3.0757532 6.6300139 1.023635
-3.0273533 6.6521802 1.0265322
-2.98281 6.6725249 1.0232289
-2.9382558 6.6928854 1.0210907
-2.9189017 6.7019892 1.048142
-2.8835275 6.7179909 1.0288599
-2.8385251 6.7384748 1.0178595
-2.7821729 6.7643557 1.0290482
-2.73663 6.7850957 1.0191045
-2.6909595 6.8060217 1.0228808
-2.645278 6.8269634 1.0278502
-2.5997241 6.8477201 1.0190995
-2.5540259 6.8686862 1.0258585
-2.5083168 6.8896685 1.0338106
-2.4627516 6.9104404 1.026253
-2.4171865 6.9312134 1.0186954
-2.3714552 6.9522276 1.0290334
-2.3258846 6.9730086 1.0220723
-2.2803137 6.9937892 1.0151112
-2.2345605 7.0148363 1.0278355
-2.1889842 7.0356245 1.0214709
-2.143214 7.0566959 1.0359848
-2.0748415 7.0878911 1.0273327
-2.0064688 7.1190863 1.0186806
-1.9608871 7.139883 1.0129125
-1.9153053 7.1606798 1.0071445
-1.8697236 7.1814766 1.0013764
-1.8236766 7.2029505 1.0457166
-5.6575303 5.4493284 1.0792216
-5.6118407 5.4702682 1.0829989
-5.5661516 5.4912086 1.0867761
-5.520462 5.5121484 1.0905534
-5.4747729 5.5330882 1.0943307
-5.4294052 5.5536427 1.076031
-5.3840208 5.5742178 1.0589247
-5.3383141 5.5951786 1.0638952
-5.2926073 5.6161394 1.0688659
-5.2469006 5.6371002 1.0738366
-5.2011938 5.658061 1.0788071
-5.1554871 5.6790223 1.0837778
-5.1100416 5.6996703 1.070848
-5.0643258 5.7206416 1.0764153
-5.01861 5.7416129 1.0819826
-4.9731297 5.7623024 1.0714396
-4.9274058 5.7832842 1.0776036
-4.8818989 5.8040056 1.0688508
-4.8361664 5.8249974 1.0756114
-4.7904334 5.8459892 1.082372
-4.7448921 5.8667521 1.0760058
-4.6993332 5.887536 1.070833
-4.6535826 5.9085488 1.0787868
-4.6078324 5.9295616 1.0867409
-4.5881019 5.9382663 1.0570359
-4.5622387 5.950387 1.0839547
-4.5299349 5.9651155 1.0795293
-4.4764624 5.9894853 1.0712131
-4.4095097 6.0201797 1.0776217
-4.3650188 6.0404701 1.0719862
-4.3170757 6.0624576 1.0773058
-4.2697258 6.0841103 1.0767157
-4.2202392 6.1067071 1.0730975
-4.1726356 6.1285362 1.0780953
-4.1327353 6.146944 1.0926449
-4.1222439 6.1515179 1.0718013
-4.0724292 6.1743083 1.0721327
-4.0263681 6.1955028 1.0837702
-4.0131674 6.201273 1.0589298
-3.9683197 6.2219501 1.0735346
-3.9194922 6.2444024 1.0833718
-3.9035685 6.2514787 1.0617486
-3.8700328 6.2670164 1.0795444
-3.8262749 6.2868667 1.0607136
-3.7732673 6.3114529 1.0915256
-3.7233529 6.3342786 1.0881165
-3.6953714 6.3471413 1.0929054
-3.6705768 6.3582892 1.0721598
-3.6234977 6.3799305 1.0801523
-3.5640607 6.4070821 1.0732965
-3.5185981 6.4279056 1.0738621
-3.4952192 6.4388008 1.0949962
-3.4594445 6.4548697 1.0630773
-3.4297183 6.4685826 1.0754987
-3.3973372 6.4834599 1.0826454
-3.3568521 6.5018077 1.0641446
-3.3245437 6.5166736 1.073521
-3.277621 6.5381618 1.0762123
-3.227447 6.561141 1.0792694
-3.1606376 6.59165 1.0737319
-3.1110868 6.6143394 1.0762765
-3.0608077 6.6373835 1.081127
-3.0156231 6.6579552 1.0706778
-2.964251 6.681531 1.0789641
-2.9186025 6.7024245 1.0803545
-2.8730483 6.7231808 1.0716038
-2.8273838 6.7440987 1.0747836
-2.7817078 6.7650328 1.0791564
-2.7361426 6.7858052 1.0715988
-2.6905775 6.8065777 1.0640411
-2.6447463 6.8277373 1.0851166
-2.5991702 6.848526 1.078752
-2.5535941 6.8693151 1.0723876
-2.5078683 6.8903213 1.0821292
-2.4622865 6.911118 1.0763612
-2.4167047 6.9319148 1.0705931
-2.3711228 6.9527116 1.0648251
-2.3253696 6.9737587 1.0775493
-2.2797823 6.9945631 1.0723778
-2.2340121 7.0156341 1.0868917
-2.1884193 7.036447 1.0823166
-2.1428266 7.05726 1.0777416
-2.0744371 7.0884795 1.0708791
-2.006048 7.119699 1.0640167
-1.9604551 7.1405115 1.0594417
-1.9148623 7.1613245 1.0548667
-1.8690424 7.1824684 1.0747492
-1.8232114 7.2036281 1.0958248
-5.6567988 5.4502039 1.1293423
-5.6111269 5.4711232 1.1319262
-5.565455 5.4920421 1.1345102
-5.519783 5.5129614 1.137094
-5.4741111 5.5338802 1.139678
-5.4284391 5.5547996 1.1422619
-5.3830805 5.5753436 1.1233655
-5.3373995 5.5962729 1.1265461
-5.2920151 5.6168485 1.1094397
-5.246326 5.6377883 1.113217
-5.2006364 5.6587281 1.1169943
-5.1549468 5.6796684 1.1207715
-5.1092577 5.7006083 1.1245488
-5.0635681 5.7215481 1.1283261
-5.017879 5.7424884 1.1321033
-4.9724245 5.7631469 1.1197704
-4.9267263 5.7840972 1.1241443
-4.8810282 5.805048 1.1285182
-4.83533 5.8259983 1.1328921
-4.7898326 5.8467088 1.1235427
-4.7443171 5.8674402 1.1153862
-4.6986017 5.8884115 1.1209536
-4.6528864 5.9093828 1.1265209
-4.6071706 5.9303541 1.1320882
-4.5616121 5.9511375 1.1269153
-4.516036 5.9719419 1.1229358
-4.4704418 5.9927673 1.1201496
-4.4247007 6.0137701 1.127507
-4.3742352 6.0367651 1.1192149
-4.3288302 6.0576248 1.1276901
-4.2814007 6.07934 1.1295415
-4.2419257 6.0975509 1.1438093
-4.2305942 6.1024809 1.1203536
-4.1859498 6.1229539 1.1252085
-4.1377778 6.1449542 1.1219467
-4.084692 6.1692777 1.1257169
-4.0417933 6.1888633 1.1223619
-4.0012989 6.2076254 1.1444695
-3.9826632 6.2159371 1.1247334
-3.9401214 6.2353435 1.1198663
-3.9030116 6.2526174 1.1475842
-3.8839979 6.2610698 1.1240573
-3.8295765 6.2860088 1.1258659
-3.7719564 6.3125424 1.1403035
-3.7239947 6.3344979 1.1393064
-3.6968808 6.3469973 1.1475257
-3.6650844 6.3611794 1.1095619
-3.6332724 6.3759708 1.1317568
-3.5900559 6.3956327 1.118746
-3.577004 6.4018173 1.1409659
-3.5336664 6.4214802 1.1236153
-3.4820452 6.4451041 1.1248547
-3.4326067 6.4677386 1.1270655
-3.3857431 6.4891462 1.1238894
-3.3365586 6.5116434 1.1237936
-3.2885499 6.5336428 1.1279324
-3.2334046 6.558826 1.1234571
-3.1919935 6.5777888 1.1257002
-3.146373 6.5986423 1.1241077
-3.1007414 6.6195116 1.1237085
-3.0550985 6.6403971 1.1245022
-3.009445 6.6612988 1.1264889
-2.9637802 6.6822166 1.1296687
-2.9182038 6.7030048 1.1233041
-2.8726275 6.723794 1.1169395
-2.8268299 6.744905 1.1344361
-2.7812424 6.7657099 1.1292646
-2.7356553 6.7865148 1.1240931
-2.6900678 6.8073196 1.1189215
-2.6443477 6.8283181 1.1280667
-2.5987549 6.8491306 1.1234916
-2.5530181 6.8701534 1.1344264
-2.5074196 6.8909745 1.1304479
-2.4618213 6.9117956 1.1264694
-2.416223 6.9326162 1.1224909
-2.3706245 6.9534378 1.1185124
-2.3248546 6.9745083 1.1330262
-2.2792506 6.9953375 1.1296443
-2.2336466 7.0161667 1.1262624
-2.1880429 7.0369954 1.1228805
-2.1424389 7.0578246 1.1194985
-2.0740328 7.0890684 1.1144255
-2.0056272 7.1203117 1.1093526
-1.9600232 7.1411409 1.1059706
-1.9144193 7.1619701 1.1025888
-1.8683611 7.1834602 1.148122
-1.8227462 7.2043052 1.145933
-5.6560674 5.4510798 1.1794631
-5.6104126 5.4719782 1.1808537
-5.5647583 5.4928765 1.1822443
-5.5191035 5.5137749 1.1836349
-5.4734492 5.5346732 1.1850253
-5.4277945 5.5555711 1.1864159
-5.3821402 5.5764694 1.1878065
-5.3364854 5.5973678 1.1891971
-5.2911272 5.6179113 1.1703006
-5.2454634 5.6388206 1.1722879
-5.200079 5.6593952 1.1551814
-5.1692653 5.67378 1.1819645
-5.1084738 5.7015467 1.1782496
-5.0628109 5.722455 1.1802368
-5.0171471 5.7433639 1.182224
-4.9717193 5.7639909 1.168101
-4.9260473 5.7849102 1.1706849
-4.8803754 5.8058295 1.1732688
-4.8347034 5.8267484 1.1758528
-4.7892318 5.8474278 1.1647131
-4.7435513 5.8683577 1.1678938
-4.6978703 5.889287 1.1710744
-4.6521893 5.9102163 1.1742549
-4.6065087 5.9311461 1.1774354
-4.5608282 5.952076 1.180616
-4.515296 5.9728279 1.1736531
-4.4696064 5.9937682 1.1774304
-4.4239168 6.0147085 1.1812078
-4.3784714 6.035356 1.1682781
-4.3327646 6.0563173 1.1732488
-4.2870579 6.0772781 1.1782193
-4.2414465 6.098124 1.1766264
-4.1763391 6.1278439 1.1708564
-4.1454601 6.1419878 1.1726706
-4.1044397 6.160871 1.1837816
-4.0655022 6.1785359 1.1703104
-4.0079012 6.2049212 1.1737278
-3.9601779 6.2267499 1.1737028
-3.9141164 6.24789 1.1802397
-3.9052682 6.2516646 1.1549616
-3.8617616 6.2717605 1.1729573
-3.8133016 6.2940164 1.1806927
-3.7717628 6.3130479 1.181863
-3.7263916 6.3339186 1.1910301
-3.6924682 6.3490467 1.1503739
-3.6684139 6.3603015 1.1743129
-3.614723 6.3848581 1.1728185
-3.5644937 6.4078341 1.1727867
-3.5156481 6.4301958 1.1747975
-3.4680731 6.4519639 1.1753981
-3.4209328 6.4735408 1.1769303
-3.374099 6.4949241 1.1726334
-3.3284397 6.5158343 1.1752167
-3.2828135 6.536695 1.1742208
-3.2371767 6.5575728 1.174418
-3.1915283 6.5784659 1.1758083
-3.145869 6.5993757 1.1783917
-3.100276 6.6201892 1.1738167
-3.0546832 6.6410017 1.1692418
-3.0090017 6.6619434 1.174211
-2.9634035 6.682765 1.1702325
-2.9177055 6.7037311 1.1769916
-2.8721015 6.7245598 1.1736096
-2.8263869 6.7455502 1.1821582
-2.7807775 6.766387 1.1793728
-2.735168 6.7872243 1.1765873
-2.6895585 6.8080616 1.1738019
-2.643949 6.8288984 1.1710165
-2.5983396 6.8497353 1.168231
-2.5525861 6.8707824 1.1809554
-2.5069711 6.8916278 1.1787665
-2.4613562 6.9124727 1.1765776
-2.415741 6.9333177 1.1743886
-2.370126 6.9541631 1.1721997
-2.3245111 6.9750085 1.1700109
-2.2788961 6.9958534 1.167822
-2.2332811 7.0166988 1.1656331
-2.1876662 7.0375438 1.1634442
-2.1420512 7.0583887 1.1612554
-2.096436 7.0792341 1.1590664
-2.0508211 7.1000795 1.1568775
-2.0052061 7.1209245 1.1546886
-1.9593751 7.1420841 1.1757642
-1.9137547 7.1629372 1.1741719
-1.867907 7.1841216 1.1970371
-1.822281 7.2049828 1.1960412
-5.6553364 5.4519553 1.2295837
-5.6096992 5.4728327 1.2297809
-5.5640621 5.49371 1.2299782
-5.518425 5.5145874 1.2301754
-5.4727879 5.5354652 1.2303725
-5.4271507 5.5563426 1.2305698
-5.3815136 5.57722 1.230767
-5.3358765 5.5980973 1.2309642
-5.2902393 5.6189747 1.2311615
-5.2446022 5.6398525 1.2313586
-5.1761465 5.6711683 1.2316544
-5.1076903 5.7024846 1.2319503
-5.0620532 5.723362 1.2321475
-5.0164161 5.7442393 1.2323447
-4.971014 5.7648354 1.2164317
-4.9253683 5.7857237 1.2172256
-4.8797226 5.8066111 1.2180195
-4.8340764 5.8274994 1.2188134
-4.7884307 5.8483868 1.2196072
-4.7427845 5.8692751 1.2204012
-4.6971388 5.8901625 1.221195
-4.6514931 5.9110508 1.2219889
-4.6058474 5.9319382 1.2227829
-4.5602016 5.9528265 1.2235768
-4.5145555 5.9737139 1.2243705
-4.4689097 5.9946022 1.2251644
-4.4232635 6.0154901 1.2259583
-4.3777399 6.036232 1.2183988
-4.3320856 6.0571303 1.2197894
-4.2863259 6.0781536 1.22834
-4.2406802 6.099041 1.2291338
-4.1951213 6.1198249 1.223961
-4.149467 6.1407232 1.2253517
-4.1038127 6.1616216 1.2267421
-4.058219 6.182447 1.223956
-4.0126076 6.2032933 1.2223632
-3.9669359 6.2242117 1.2249471
-3.9212987 6.24509 1.2251444
-3.8749862 6.2662721 1.2249084
-3.8285294 6.2875214 1.2248644
-3.779515 6.3099041 1.2211872
-3.7035975 6.3444996 1.205151
-3.6947315 6.3487792 1.2287989
-3.6522603 6.3679686 1.2031527
-3.6278062 6.379375 1.2269311
-3.5561607 6.4121242 1.2243388
-3.5105286 6.4329939 1.2239395
-3.4648864 6.4538794 1.2247334
-3.4192321 6.4747806 1.2267201
-3.3736119 6.4956336 1.2251277
-3.327991 6.5164871 1.2235353
-3.2823706 6.5373402 1.2219429
-3.2367499 6.5581937 1.2203505
-3.1910634 6.5791435 1.2259166
-3.145581 6.5997949 1.209411
-3.145365 6.6001096 1.2326756
-3.0769982 6.6312971 1.2234271
-3.0085588 6.6625891 1.2219331
-2.9629326 6.6834502 1.2209373
-2.917207 6.7044563 1.230679
-2.8715754 6.7253256 1.2302797
-2.8259439 6.7461953 1.2298803
-2.7803121 6.7670646 1.229481
-2.7346807 6.7879338 1.2290816
-2.689049 6.8088036 1.2286823
-2.6434174 6.8296728 1.2282829
-2.5749698 6.8609767 1.2276841
-2.5065227 6.8922806 1.2270851
-2.4608908 6.9131498 1.2266858
-2.4152594 6.9340196 1.2262864
-2.3696277 6.9548888 1.2258871
-2.3239961 6.9757581 1.2254878
-2.2783644 6.9966278 1.2250885
-2.2327328 7.0174971 1.2246892
-2.1871014 7.0383663 1.2242899
-2.1414697 7.0592356 1.2238905
-2.0958381 7.0801048 1.2234912
-2.0502064 7.1009741 1.2230918
-2.0045748 7.1218438 1.2226926
-1.9587272 7.1430278 1.2455578
-1.9130901 7.1639051 1.245755
-1.867453 7.1847825 1.2459522
-1.8218158 7.2056599 1.2461494
-5.6546049 5.4528308 1.2797046
-5.6089849 5.4736872 1.2787085
-5.5633655 5.494544 1.2777123
-5.5177455 5.5154004 1.2767161
-5.472126 5.5362573 1.27572
-5.426506 5.5571136 1.2747239
-5.3808866 5.5779705 1.2737278
-5.3352666 5.5988269 1.2727315
-5.2896471 5.6196837 1.2717354
-5.2440271 5.6405401 1.2707393
-5.1755977 5.6718254 1.2692451
-5.1071682 5.7031097 1.2677509
-5.0615482 5.7239666 1.2667547
-5.0156851 5.7451153 1.2824655
-4.9700737 5.7659616 1.2808726
-4.9244628 5.7868071 1.2792798
-4.8788519 5.8076534 1.2776871
-4.8332405 5.8284998 1.2760942
-4.7876296 5.8493462 1.2745013
-4.7420187 5.8701921 1.2729086
-4.6964073 5.8910379 1.2713158
-4.6507964 5.9118843 1.2697229
-4.6051855 5.9327307 1.2681302
-4.5594177 5.9537649 1.2772775
-4.5138154 5.9745998 1.275088
-4.4682131 5.9954367 1.2728986
-4.4226108 6.0162716 1.270709
-4.3770084 6.0371075 1.2685194
-4.3312926 6.0580788 1.2740867
-4.2855949 6.0790291 1.2784609
-4.2401056 6.0997295 1.2685144
-4.2398181 6.1000733 1.2882048
-4.1943378 6.1207633 1.2776618
-4.1487617 6.1415677 1.2736824
-4.103116 6.1624551 1.2744761
-4.0574875 6.1833224 1.2740767
-4.0118766 6.2041688 1.2724838
-3.9655349 6.225399 1.2754939
-3.9190304 6.2466636 1.2748075
-3.8716211 6.2683558 1.2753695
-3.8211172 6.2914987 1.2793602
-3.7715003 6.3140907 1.2703561
-3.7181473 6.3385568 1.2793341
-3.6969063 6.3480592 1.258424
-3.6582029 6.3660107 1.2849859
-3.6194916 6.3835783 1.269994
-3.5587332 6.4114265 1.2759435
-3.5118306 6.4328642 1.2742203
-3.4653325 6.4541373 1.2746474
-3.418767 6.4754581 1.2768283
-3.3731248 6.4963431 1.2776221
-3.3275425 6.5171404 1.2718539
-3.2818723 6.5380664 1.2756302
-3.2362626 6.5589032 1.2728448
-3.190598 6.5798206 1.2760248
-3.145005 6.6006336 1.2714498
-3.0765162 6.6319981 1.2753248
-3.0080271 6.6633635 1.2791996
-2.9624619 6.6841354 1.271642
-2.9168084 6.7050371 1.2736287
-2.8711545 6.7259388 1.2756157
-2.825501 6.7468405 1.2776024
-2.7798471 6.7677422 1.2795892
-2.7341933 6.7886434 1.2815759
-2.6885395 6.809545 1.2835627
-2.6428857 6.8304467 1.2855496
-2.5745463 6.8615932 1.2733183
-2.506074 6.8929338 1.2754037
-2.4604259 6.9138274 1.276794
-2.4147775 6.934721 1.2781842
-2.3691294 6.9556146 1.2795745
-2.3234811 6.9765081 1.2809647
-2.277833 6.9974012 1.282355
-2.2321846 7.0182948 1.2837453
-2.1865366 7.0391884 1.2851355
-2.1408882 7.060082 1.2865257
-2.0952401 7.0809755 1.2879161
-2.0267677 7.1123161 1.2900014
-1.9582953 7.1436563 1.2920868
-1.9126471 7.1645498 1.2934771
-1.8669989 7.1854434 1.2948674
-1.8213507 7.206337 1.2962576
-5.6538734 5.4537067 1.3298253
-5.6082711 5.4745426 1.3276358
-5.5626688 5.495378 1.3254462
-5.5170665 5.5162139 1.3232569
-5.4714642 5.5370498 1.3210673
-5.4258618 5.5578856 1.3188778
-5.3802595 5.578721 1.3166883
-5.3346572 5.5995569 1.3144989
-5.2890549 5.6203928 1.3123094
-5.243165 5.641572 1.3298101
-5.1747746 5.6728106 1.3256309
-5.1063843 5.7040482 1.3214517
-5.060791 5.7248735 1.3186655
-5.0149531 5.7459908 1.3325862
-4.9693685 5.7668056 1.3292032
-4.9237833 5.7876205 1.3258204
-4.8781986 5.8084354 1.3224376
-4.8324046 5.8295002 1.333375
-4.7868285 5.8503046 1.3293955
-4.7412519 5.8711095 1.325416
-4.6956758 5.8919139 1.3214364
-4.6502743 5.9125099 1.3055234
-4.6157498 5.9285221 1.3259584
-4.5586338 5.9547024 1.3309783
-4.5130749 5.9754858 1.3258054
-4.4673772 5.9964366 1.3301792
-4.4218273 6.0172095 1.3244097
-4.376277 6.0379829 1.3186402
-4.3305006 6.0590277 1.3283843
-4.2849684 6.0797796 1.3214214
-4.2393394 6.1006465 1.3210218
-4.1936412 6.1215968 1.3253958
-4.1461535 6.1432772 1.3215216
-4.1025591 6.1631231 1.3126634
-4.0790114 6.1740413 1.3263352
-4.0477672 6.1884151 1.3339154
-4.0061774 6.2072234 1.3139346
-3.9660301 6.2257223 1.3264108
-3.9453294 6.2354012 1.3459244
-3.9067342 6.2527618 1.318761
-3.8664267 6.2712455 1.3231145
-3.8286602 6.2885337 1.3256422
-3.8024082 6.3003845 1.3114794
-3.7782931 6.3115654 1.3277347
-3.7233768 6.3367391 1.3362541
-3.696825 6.348783 1.3276255
-3.6775753 6.3574262 1.3124585
-3.6284053 6.3800383 1.3268235
-3.5872202 6.3990679 1.3485578
-3.5739195 6.4049411 1.3257574
-3.5241921 6.4276795 1.3249438
-3.4786434 6.4485965 1.3337058
-3.4704719 6.4521046 1.3089409
-3.4281213 6.4716177 1.3240824
-3.3810844 6.4931674 1.3278065
-3.3327882 6.5152259 1.3241682
-3.2866914 6.5363483 1.3281156
-3.2386994 6.5582695 1.3247162
-3.1901329 6.5804987 1.326133
-3.1445012 6.6013675 1.3257337
-3.0760345 6.6327 1.3272223
-3.0075841 6.6640081 1.3269217
-2.9619913 6.6848211 1.3223468
-2.9163101 6.7057629 1.3273162
-2.8707337 6.7265511 1.3209516
-2.8250577 6.7474852 1.3253245
-2.7793818 6.7684193 1.3296974
-2.733706 6.7893529 1.3340702
-2.6881573 6.8101015 1.324723
-2.642487 6.831027 1.3284994
-2.5741229 6.8622103 1.3189526
-2.5056252 6.8935871 1.3237224
-2.4599605 6.914505 1.3269022
-2.4142957 6.9354224 1.3300819
-2.3687971 6.9560986 1.315366
-2.3231378 6.9770079 1.3179494
-2.2774785 6.9979177 1.3205327
-2.2318192 7.0188274 1.3231159
-2.1861598 7.0397372 1.3256993
-2.1405005 7.060647 1.3282826
-2.0948412 7.0815563 1.330866
-2.0263524 7.1129208 1.3347409
-1.9578635 7.1442857 1.3386159
-1.9122041 7.165195 1.3411992
-1.8665448 7.1861048 1.3437825
-1.8208855 7.2070146 1.3463658
-5.653142 5.4545822 1.3799459
-5.6075573 5.4753971 1.3765631
-5.5619721 5.496212 1.3731802
-5.5163875 5.5170269 1.3697973
-5.4708023 5.5378418 1.3664145
-5.4252176 5.5586567 1.3630316
-5.3796325 5.5794716 1.3596488
-5.3337431 5.6006513 1.3771497
-5.2881665 5.6214557 1.3731701
-5.2423029 5.6426044 1.388881
-5.1739516 5.6737952 1.3820167
-5.1056008 5.7049861 1.3751523
-5.0600333 5.7257805 1.3705763
-5.0142221 5.7468662 1.3827069
-4.9686632 5.7676497 1.3775342
-4.9231043 5.7884336 1.3723612
-4.8775454 5.8092175 1.3671883
-4.8317776 5.8302507 1.3763356
-4.7860274 5.851264 1.3842896
-4.7404861 5.8720264 1.3779234
-4.6949444 5.8927898 1.3715572
-4.6264672 5.9241319 1.3733447
-4.5580072 5.9554529 1.3739388
-4.5123348 5.9763727 1.3765228
-4.4666805 5.9972706 1.3779132
-4.4210434 6.0181479 1.3781106
-4.3717232 6.0406866 1.3761591
-4.3252401 6.061923 1.3737421
-4.277894 6.0835376 1.3698212
-4.2298536 6.105526 1.3710487
-4.1802773 6.1282463 1.3750792
-4.1379218 6.14748 1.3620176
-4.1284714 6.1520486 1.3848259
-4.0837965 6.1723976 1.3768933
-4.0347781 6.1948185 1.3767078
-3.9835584 6.2182307 1.3751385
-3.9302278 6.2426257 1.3757449
-3.8742511 6.2681913 1.3741767
-3.8202038 6.2927442 1.360322
-3.8030734 6.3007016 1.3733804
-3.776556 6.3129172 1.3834307
-3.7247047 6.3366499 1.3877429
-3.6991477 6.34828 1.3831855
-3.6719158 6.3605857 1.3696259
-3.6179745 6.3853278 1.3794875
-3.5921395 6.3969312 1.3595943
-3.5547407 6.4143085 1.3885581
-3.5326169 6.4242516 1.3708586
-3.4912467 6.4431725 1.3705287
-3.4516807 6.4614706 1.3920902
-3.4350441 6.4688883 1.3712784
-3.3934705 6.4879313 1.3740677
-3.3537817 6.506278 1.3948586
-3.3252668 6.5191531 1.3766806
-3.2916818 6.5343809 1.3621502
-3.2579904 6.5500526 1.3902619
-3.2215552 6.5665402 1.370943
-3.1578245 6.5957451 1.3767116
-3.1132271 6.616169 1.3792349
-3.0721364 6.6349316 1.3755769
-3.0128124 6.6620474 1.3734357
-2.9674525 6.6828756 1.3819087
-2.9158115 6.7064886 1.3810036
-2.8703127 6.7271643 1.3662875
-2.8246145 6.7481303 1.3730466
-2.7789166 6.7690964 1.3798056
-2.7332187 6.7900629 1.3865645
-2.6877751 6.8106575 1.3658834
-2.6420884 6.8316078 1.3714492
-2.5735579 6.8630328 1.3797982
-2.5051768 6.8942404 1.3720409
-2.4594953 6.9151821 1.3770103
-2.4138138 6.9361238 1.3819798
-2.3682985 6.9568243 1.3690534
-2.3226228 6.9777575 1.3734262
-2.2769468 6.9986916 1.3777992
-2.2314537 7.0193596 1.3624867
-2.1857831 7.0402851 1.366263
-2.1401129 7.0612111 1.3700395
-2.0944426 7.0821366 1.3738158
-2.0259371 7.1135254 1.3794804
-1.9574314 7.1449142 1.3851449
-1.911761 7.1658401 1.3889213
-1.8660907 7.1867657 1.3926977
-1.8204203 7.2076917 1.396474
-5.6524105 5.4554577 1.4300667
-5.606843 5.4762516 1.4254905
-5.5612755 5.497046 1.4209143
-5.515708 5.5178399 1.4163381
-5.4701405 5.5386338 1.4117619
-5.4245729 5.5594277 1.4071858
-5.3786917 5.5805969 1.4240899
-5.3328285 5.6017456 1.4398006
-5.2872787 5.622519 1.4340311
-5.2417283 5.643292 1.4282615
-5.1734033 5.6744518 1.4196072
-5.1048169 5.7059245 1.4288532
-5.0592756 5.7266874 1.4224869
-5.0134902 5.7477422 1.4328276
-4.9679575 5.7684941 1.4258647
-4.9221988 5.7895174 1.4344153
-4.8766747 5.8102598 1.4268558
-4.831151 5.8310013 1.4192963
-4.7854266 5.8519831 1.4254602
-4.7397194 5.8729439 1.4304309
-4.6942129 5.8936653 1.4216779
-4.6302676 5.9229579 1.4256533
-4.5573797 5.9562035 1.4168994
-4.5248108 5.9712501 1.4306519
-4.4798679 5.9916887 1.4196486
-4.4222164 6.0181565 1.4286226
-4.3597803 6.0467424 1.4309905
-4.3120227 6.0685072 1.4235812
-4.2646852 6.0901446 1.4221036
-4.2151251 6.1128297 1.4235591
-4.1656089 6.1355157 1.4269236
-4.1157126 6.1583142 1.4245876
-4.0642376 6.1818643 1.4250048
-4.0484114 6.1893649 1.4492717
-4.0102944 6.2065372 1.4250987
-3.9599895 6.2294679 1.4188436
-3.9320836 6.2422938 1.4263364
-3.9079728 6.25315 1.4105073
-3.8829265 6.2648406 1.4351995
-3.8298912 6.2888498 1.4132152
-3.8053732 6.300231 1.4311192
-3.7777514 6.3128948 1.4355563
-3.7264223 6.3363733 1.4383658
-3.6971412 6.3497519 1.4384898
-3.6702058 6.3619199 1.424751
-3.6286366 6.3808451 1.4181014
-3.5939867 6.3968287 1.4334344
-3.5735173 6.4059691 1.4123865
-3.5234418 6.428977 1.4253342
-3.4782963 6.4498291 1.447947
-3.466254 6.4551086 1.4246519
-3.4134262 6.4792743 1.4249704
-3.3697107 6.4993744 1.436154
-3.3591299 6.5040388 1.4172018
-3.3145924 6.5245042 1.4271977
-3.2682152 6.5457983 1.4358701
-3.2578158 6.5503068 1.4090525
-3.2170253 6.5690989 1.4234635
-3.1672411 6.591898 1.4263335
-3.1198859 6.613555 1.4258298
-3.0732341 6.6349468 1.4314207
-3.023632 6.6575985 1.4273977
-2.9790399 6.6780138 1.4293382
-2.934556 6.6982718 1.4196258
-2.8832579 6.7217398 1.4199122
-2.8348055 6.7438903 1.4185032
-2.8006663 6.7596841 1.4376832
-2.7672858 6.7749033 1.4322925
-2.7328532 6.7905946 1.4259353
-2.6872659 6.8113995 1.4207637
-2.6415567 6.8323822 1.4287157
-2.5731342 6.8636498 1.4254324
-2.5047283 6.8948932 1.4203596
-2.4590302 6.9158592 1.4271185
-2.4134927 6.9365916 1.4165783
-2.3678002 6.9575496 1.4227407
-2.3221078 6.9785075 1.4289032
-2.2764151 6.9994659 1.4350657
-2.2309055 7.0201578 1.4215428
-2.1852183 7.0411081 1.4271088
-2.1397252 7.0617757 1.4117963
-2.0940437 7.0827174 1.4167657
-2.0255218 7.1141305 1.4242198
-1.9569994 7.1455436 1.431674
-1.9113181 7.1664853 1.4366434
-1.8656366 7.1874275 1.4416127
-1.8199551 7.2083693 1.4465822
-5.651679 5.4563332 1.4801874
-5.6061292 5.4771066 1.4744179
-5.5605788 5.4978795 1.4686483
-5.515029 5.5186529 1.4628788
-5.4694786 5.5394258 1.4571092
-5.4236064 5.560585 1.4734166
-5.3777518 5.5817232 1.4885306
-5.3322191 5.6024756 1.4815677
-5.2866864 5.6232281 1.4746048
-5.2411537 5.64398 1.4676419
-5.1802578 5.6718726 1.4710873
-5.1495485 5.686131 1.4907101
-5.104033 5.7068624 1.482554
-5.0585179 5.7275944 1.4743977
-5.0127592 5.7486176 1.4829483
-4.9672523 5.7693386 1.4741955
-4.9215193 5.7903304 1.4809561
-4.8760214 5.8110414 1.4716065
