# .PCD v0.7 - Point Cloud Data file format
VERSION 0.7
FIELDS x y z
SIZE 4 4 4
TYPE F F F
COUNT 1 1 1
WIDTH 1474
HEIGHT 1
VIEWPOINT 0 0 0 1 0 0 0
POINTS 1474
DATA ascii
-0.14852773 -1.1289908 -0.15758817
-0.052762054 -1.1349186 -0.1572316
0.048347604 -1.1417365 -0.15586619
0.15047441 -1.1493362 -0.1565733
0.22659156 -1.1637558 -0.15610683
1.8539828 -1.1698918 -0.15022112
1.9662366 -1.1732346 -0.15301552
2.0478425 -1.1838417 -0.14710777
2.1530032 -1.19516 -0.15061952
11.56115 -1.12018 -0.1267105
-9.5873404 -1.03319 -0.14727801
-5.205617 -1.0036401 -0.13882434
-5.102365 -1.034575 -0.170433
-5.0537539 -1.0621917 -0.13906634
-0.52515429 -1.0959972 -0.16500634
-0.46523872 -1.0965253 -0.1495764
-9.5724297 -0.93881154 -0.14688951
-5.2393169 -0.94658673 -0.13942634
-5.1271 -0.9574275 -0.1821405
11.5839 -0.99791396 -0.126837
-9.5703201 -0.82547849 -0.1467085
-5.2220149 -0.86326498 -0.12703875
-5.1516924 -0.85168827 -0.17090425
11.584949 -0.88617253 -0.12674099
-9.5513802 -0.73164201 -0.146292
-5.2548099 -0.76265049 -0.12742451
-5.1769843 -0.75745958 -0.16438501
11.591249 -0.76251948 -0.126719
-9.5318604 -0.61786652 -0.14588401
11.5927 -0.63864052 -0.12665349
-9.5332851 -0.53639698 -0.1458315
11.59655 -0.56451654 -0.12665349
11.607263 -0.55264121 -0.12676549
-9.5304251 -0.424247 -0.1457005
-0.12780885 -0.43138391 -0.18617471
-0.090533338 -0.42052087 -0.19058999
11.62285 -0.46156502 -0.12689126
-9.530405 -0.322541 -0.145631
-0.12978186 -0.34985203 -0.17653137
-0.062086344 -0.34306848 -0.16548945
11.6334 -0.33787602 -0.126959
-0.13124433 -0.29492503 -0.17170468
-0.023461359 -0.21015464 -0.14761454
0.048430316 -0.20809461 -0.15095295
0.14454131 -0.20536032 -0.14207356
0.24304435 -0.20595211 -0.13700917
0.35561231 -0.20500958 -0.14494672
0.41837993 -0.20677637 -0.14791754
-9.5648346 -0.1401445 -0.14609751
-0.043425929 -0.18030384 -0.14742082
0.059605468 -0.19013701 -0.17500299
0.15059708 -0.16232032 -0.17531133
0.24484412 -0.16553886 -0.17417258
0.3379589 -0.15267824 -0.16344976
0.41838363 -0.18942371 -0.14909695
11.658751 -0.1894625 -0.1272095
-9.6208096 -0.028191101 -0.14693999
-0.027834451 -0.098822601 -0.100927
0.18146068 -0.055332113 -0.17936666
0.2584514 -0.039762668 -0.17825876
0.31166822 -0.047760617 -0.14803606
11.668 -0.077704296 -0.1272995
-9.7126255 0.064682201 -0.1483445
-0.20676851 0.091671452 -0.1798605
-0.14072712 0.068951227 -0.13717712
-0.054366145 0.093995266 -0.10541367
0.1807407 0.058804892 -0.17998904
0.24988519 0.046301361 -0.17615692
0.31661668 0.053058229 -0.14346856
0.43082494 0.087235056 -0.12203308
11.6797 0.034224153 -0.127413
-9.982995 0.16223049 -0.1524985
-0.11361472 0.16901331 -0.18235643
-0.042493917 0.17584069 -0.15157671
0.059145216 0.18992612 -0.16369416
0.14869332 0.16902363 -0.16734099
0.24546868 0.16028248 -0.16880062
0.33834237 0.15147802 -0.15635854
0.43113935 0.15071073 -0.13325796
11.656 0.1707845 -0.12716851
-10.11555 0.29379201 -0.154558
-0.020740537 0.20576733 -0.14772616
0.038529169 0.20509213 -0.14112438
0.13913627 0.20622459 -0.1259762
0.23765981 0.20345587 -0.12468689
0.35929778 0.22047538 -0.13649206
0.43193442 0.211445 -0.1318626
-10.11865 0.38023299 -0.1546495
11.56665 0.39145401 -0.1262565
-10.114534 0.47364995 -0.15464717
8.1029501 0.45591801 -0.141661
8.3075151 0.46742749 -0.14523751
10.6565 0.47437599 -0.13964
-10.092501 0.55599403 -0.15437001
8.2803078 0.53673863 -0.144844
-10.084 0.66336799 -0.15434399
8.2844143 0.63459134 -0.14504001
-10.0993 0.7725305 -0.15469751
8.2984695 0.71577698 -0.109036
8.3025455 0.71612799 -0.16364649
-10.09245 0.86942899 -0.1547105
8.3146534 0.85575819 -0.14591417
-10.122 0.98074001 -0.177508
8.3346863 0.97913665 -0.146502
3.7581596 1.0935566 -0.14523351
3.894325 1.09278 -0.18543449
3.9299562 1.0729469 -0.14405312
8.3406401 1.0700501 -0.14677966
3.42606 1.19821 -0.15846901
3.5476003 1.1900375 -0.13884024
3.6629841 1.1510741 -0.13409901
3.788403 1.1487658 -0.153053
8.3591337 1.1630867 -0.14732367
-12.542 1.21521 -0.137455
2.9756701 1.28941 -0.113249
3.0537219 1.2453352 -0.14403966
3.1832151 1.221025 -0.126522
3.2687399 1.25383 -0.168163
3.3549833 1.2285317 -0.14567217
3.4496498 1.2312701 -0.18131635
3.562005 1.2201049 -0.189042
3.686955 1.20192 -0.17779049
3.8674626 1.2607625 -0.1331085
8.3640394 1.2638634 -0.14763033
-12.80965 1.3652551 -0.1405375
2.1546922 1.393073 -0.15029119
2.3300323 1.3755302 -0.15180203
2.4280901 1.380605 -0.13399599
2.5218101 1.3829001 -0.11302134
2.6599514 1.3581258 -0.14748044
2.7852352 1.3313668 -0.146253
2.87446 1.3695351 -0.180896
2.9504051 1.367 -0.1844895
3.0438457 1.3431933 -0.16802435
3.11854 1.38699 -0.163941
3.598145 1.336385 -0.167584
3.6348901 1.3500333 -0.11843201
8.3881798 1.3407468 -0.14828634
-1.5447401 1.4914068 -0.19417334
-1.4412202 1.4419471 -0.14945261
-1.352723 1.4300607 -0.14779019
-1.2388163 1.4199526 -0.15061122
-1.1765708 1.4678808 -0.15367094
-1.0489625 1.44276 -0.1992285
-0.22361423 1.4846241 -0.14661312
-0.16154195 1.4636478 -0.14052092
2.0976701 1.48703 -0.1066505
2.1374681 1.431801 -0.14295988
2.2564149 1.4538115 -0.14654016
2.3414049 1.4635301 -0.15105049
2.5663433 1.4131435 -0.16009367
2.6312101 1.40663 -0.195555
2.7588251 1.4205301 -0.1830135
2.9414601 1.43987 -0.171636
3.0636201 1.4816 -0.163461
3.12328 1.42915 -0.14996301
3.2506101 1.44573 -0.155329
8.3852444 1.4320667 -0.14850333
-12.806299 1.503065 -0.1406595
-1.5690551 1.5247149 -0.176928
-1.154583 1.5523529 -0.1545427
-1.0590026 1.5705584 -0.1549637
-0.92931968 1.5639411 -0.14582783
-0.89096278 1.5754794 -0.17028382
-0.42326578 1.5883678 -0.13667123
-0.34686249 1.5571954 -0.14853813
-0.27031541 1.521445 -0.16070922
-0.12668093 1.5298903 -0.16437568
-0.088815741 1.5699508 -0.13537113
2.0980101 1.5523125 -0.108252
2.11642 1.5638576 -0.1178395
2.4537435 1.5500101 -0.164805
2.51896 1.55761 -0.194116
2.7607076 1.552395 -0.17297001
2.8547602 1.50642 -0.1902765
3.16236 1.566945 -0.16175899
8.4377003 1.5244367 -0.14969267
-12.7871 1.639115 -0.1406375
-1.21788 1.67485 -0.1448525
-1.160434 1.6120739 -0.14240541
-1.0495118 1.6494359 -0.13855483
-0.97970241 1.6197144 -0.18224378
-0.87599283 1.646842 -0.15091841
-0.50428402 1.6240901 -0.1152355
-0.46106327 1.6207241 -0.16012356
-0.056951039 1.648087 -0.15059999
2.0924048 1.6506026 -0.11054775
2.1183069 1.6524434 -0.12320434
2.2727034 1.6775202 -0.16048734
2.6216249 1.6210899 -0.16828251
3.07285 1.64273 -0.19785801
3.1618967 1.67603 -0.182293
3.2271199 1.68124 -0.174784
3.3970101 1.64283 -0.16474999
3.65136 1.6239667 -0.13944434
3.7056301 1.6481 -0.1062
7.8498535 1.6789434 -0.14009568
8.1789036 1.6583934 -0.14565834
8.4150038 1.6224067 -0.14957333
-12.77235 1.7757499 -0.14067
-3.1212399 1.7942899 -0.141453
-3.0401692 1.7779541 -0.15830271
-2.9167423 1.756235 -0.17105351
-2.8711679 1.7551121 -0.13797669
-1.23665 1.7091875 -0.14986449
-1.10227 1.79624 -0.16586301
-1.0703933 1.7238185 -0.16863468
-0.84533238 1.7520429 -0.15028572
-0.016251858 1.7436965 -0.16088541
0.017755419 1.76329 -0.1156242
2.09969 1.7336299 -0.106983
2.1038423 1.752984 -0.1219656
2.36747 1.71264 -0.153135
2.4166899 1.7482467 -0.18241201
2.5527401 1.77713 -0.149404
2.83319 1.7644434 -0.17493467
7.6660204 1.7252434 -0.13715735
-4.0468097 1.8669541 -0.1633576
-3.9682951 1.8615251 -0.181752
-3.8102567 1.8371767 -0.16616267
-3.7563951 1.8558075 -0.15561751
-3.1522901 1.812145 -0.119023
-2.8573191 1.8257602 -0.14810744
-1.3393267 1.8234501 -0.14821433
-0.81799883 1.8484656 -0.14382474
-0.79488444 1.889215 -0.19056299
-0.60089803 1.85806 -0.127994
-0.58240402 1.8008749 -0.111619
-0.0010654801 1.81813 -0.199118
0.037629448 1.8154424 -0.11512225
2.0997901 1.8025399 -0.120826
2.1110976 1.8554262 -0.12273438
2.2085199 1.895885 -0.15890899
2.45609 1.89922 -0.16271199
2.6547999 1.8481801 -0.18368334
3.6424201 1.8976099 -0.17931899
3.7532368 1.8151067 -0.14553002
3.83196 1.8531801 -0.111461
7.6474123 1.8457234 -0.13731766
-12.7681 1.900135 -0.140817
-4.0272198 1.94179 -0.136599
-3.9303701 1.99414 -0.153907
-3.8477502 1.9710934 -0.16988933
-3.7821951 1.975035 -0.17695099
-3.6827636 1.9682901 -0.16408634
-3.5114601 1.925115 -0.16609
-3.461235 1.9215825 -0.1728155
-0.80283326 1.9208212 -0.13186362
-0.7799384 1.9590409 -0.15041922
-0.63049603 1.94958 -0.14328
0.061488662 1.9617931 -0.17048292
0.12984793 1.9583154 -0.16731343
2.09951 1.922205 -0.1180615
2.11217 1.9638739 -0.123362
2.2217751 1.9072551 -0.1855045
2.4737449 1.9128699 -0.184457
4.2337098 1.93727 -0.101592
7.666667 1.9674 -0.13815667
-12.7612 2.0522749 -0.1409975
-3.6812451 2.069515 -0.15665901
-2.8782001 2.0769701 -0.108442
-2.61149 2.0144999 -0.158424
-0.7749849 2.0346344 -0.15194334
-0.65393651 2.0634899 -0.165636
0.17406133 2.0132458 -0.17002101
2.1206648 2.0358129 -0.13073173
2.2349648 2.0859699 -0.18030751
2.6717949 2.020895 -0.182952
2.9400401 2.0841899 -0.173105
3.8484299 2.0573599 -0.190529
4.0380001 2.0008199 -0.177062
-12.744949 2.175225 -0.1410325
-2.8608899 2.1159101 -0.108717
-2.7663789 2.157661 -0.13447943
-0.80316401 2.1086199 -0.108383
-0.66745102 2.14958 -0.1919895
2.121953 2.1505044 -0.13381529
2.7350001 2.157115 -0.190209
2.9654701 2.10221 -0.190503
4.19209 2.18397 -0.103141
4.3274851 2.1442652 -0.1159245
-0.83500469 2.2570434 -0.18931501
2.1261084 2.2617617 -0.14231983
2.2237134 2.2731435 -0.16206366
2.6514549 2.2226748 -0.1888925
2.7634401 2.252305 -0.186839
4.3361602 2.2590301 -0.128031
-12.74465 2.3011651 -0.1412835
-1.74529 2.3761599 -0.16741399
-0.83640945 2.3519359 -0.14965336
-0.78794175 2.3665481 -0.15703231
2.1324019 2.358983 -0.1458098
2.2179599 2.3426399 -0.112656
2.36917 2.35232 -0.18958101
4.3532801 2.32725 -0.129262
-12.72635 2.4241199 -0.1413205
2.1277876 2.4484224 -0.14872025
2.29194 2.4207699 -0.18929701
2.4235101 2.4319701 -0.1048995
2.8382599 2.4841399 -0.19767299
-12.6971 2.5731101 -0.141325
2.1397958 2.5339589 -0.15519445
-1.6399701 2.6724751 -0.1849125
2.1424873 2.6391118 -0.15904699
2.20823 2.6473801 -0.19576
2.5543749 2.675045 -0.1130075
-12.704651 2.7158799 -0.14172199
-3.2693222 2.74596 -0.14908361
2.1358783 2.7581019 -0.16756251
2.2389801 2.73719 -0.13894001
2.35344 2.7080801 -0.12528899
2.4702868 2.7584467 -0.12385434
2.549365 2.7507949 -0.122775
5.3337698 2.7787499 -0.18375
-12.679001 2.83781 -0.1417415
-3.2895381 2.8539402 -0.15206482
2.1447034 2.8563001 -0.17156868
2.4328601 2.8357902 -0.11955167
2.5613899 2.82353 -0.116474
2.6066 2.8125501 -0.100415
5.2509699 2.8071499 -0.181918
-12.6726 2.9927702 -0.14204499
-3.30441 2.9542699 -0.116069
-3.2771173 2.9542384 -0.16782545
2.1730633 2.9658401 -0.17660634
2.20913 2.9421 -0.144555
-10.149 3.06967 -0.13880201
-9.2665501 3.0197301 -0.127584
-3.3545699 3.0574999 -0.138675
-3.2578225 3.0399823 -0.16526824
-12.6719 3.1068699 -0.14232001
-9.99506 3.1280301 -0.1371
-9.4037504 3.1756699 -0.17325
-9.3456402 3.15605 -0.12912899
2.94982 3.1156399 -0.112351
-12.6404 3.256675 -0.14239401
-10.3541 3.2404001 -0.189376
-9.84583 3.2084999 -0.180755
-9.3495703 3.257585 -0.15113449
-12.6154 3.379555 -0.14246351
-9.2473249 3.3217399 -0.15004849
-2.7702875 3.3859799 -0.14321625
0.7173838 3.394762 -0.166658
-12.262501 3.4113998 -0.1388485
-11.893801 3.4595098 -0.13511351
-9.2413006 3.4199848 -0.15048701
-2.7286351 3.4424248 -0.15330142
0.53510261 3.42502 -0.15126629
0.72087598 3.4112899 -0.1141285
-9.1809549 3.53176 -0.15023601
-3.9031899 3.5575399 -0.138293
0.59691203 3.570745 -0.1738885
0.60012901 3.5899899 -0.174832
-9.1559544 3.6233201 -0.15038851
-7.9008846 3.6041 -0.15158799
-7.8785701 3.6702924 -0.15169451
0.61061203 3.6526999 -0.12937868
-9.1444101 3.7205601 -0.1507685
-7.8683968 3.79387 -0.15245467
-4.1068001 3.7431099 -0.121247
2.8642523 3.7678044 -0.14007211
2.9590499 3.7636557 -0.13741915
3.0414746 3.7566099 -0.150766
3.1396902 3.7234774 -0.116905
3.234555 3.7219701 -0.118359
-9.1522446 3.849385 -0.151641
0.18169749 3.8866513 -0.14436279
0.26236776 3.8747087 -0.14408284
0.55835605 3.8132801 -0.17669201
-9.173665 3.9623499 -0.15261799
0.1598825 3.9003048 -0.14486
2.8759744 3.9251823 -0.14877561
-9.1562653 4.0594649 -0.15296951
2.9306769 4.0813599 -0.13164702
-4.1419802 4.1823401 -0.179841
2.478698 4.1748199 -0.173794
2.539623 4.1679258 -0.13990572
2.6573 4.1846752 -0.194768
2.7558751 4.1522751 -0.1958085
2.8500299 4.1436 -0.197595
2.952215 4.1113596 -0.187804
2.06002 4.2981601 -0.187269
2.2494721 4.2931309 -0.14809011
2.3600013 4.2850437 -0.14947101
2.4491339 4.2508516 -0.14187551
2.6552525 4.2363224 -0.14183524
2.7569439 4.2411551 -0.14348926
2.8498199 4.2275939 -0.151309
2.9349115 4.2172146 -0.140963
3.5345201 4.2374301 -0.1806415
0.13293201 4.38381 -0.191489
0.358482 4.3340602 -0.1519984
1.9632419 4.3306665 -0.14528762
2.0316868 4.3107514 -0.14096521
2.1429231 4.3050408 -0.14692621
-8.7654896 4.44731 -0.12867101
0.42076787 4.4589205 -0.16299251
1.95725 4.4299278 -0.14798081
-8.9557199 4.5438299 -0.175292
0.46906501 4.5011473 -0.14815
0.86668664 4.5818839 -0.14253281
1.9597721 4.580112 -0.152215
-9.0392199 4.7202201 -0.17799699
-3.553915 4.7320299 -0.14204599
-3.4627576 4.7144351 -0.14040551
0.94540161 4.721952 -0.14707921
1.06747 4.7981005 -0.15018921
1.137315 4.7861829 -0.15031199
1.2373689 4.7753115 -0.1507349
1.3425978 4.7611618 -0.1511506
1.448258 4.746294 -0.1516424
1.548591 4.7297616 -0.15207462
1.62456 4.7143159 -0.15238419
1.9711125 4.74581 -0.14580524
-3.8155999 4.8611803 -0.1213555
-3.72088 4.8459377 -0.14665951
0.85789466 4.8158369 -0.17083633
1.7354 4.8669748 -0.14655225
1.9847776 4.9262476 -0.1506795
-9.0485697 5.0869002 -0.181191
-5.4628735 5.0975866 -0.16303767
0.62467402 5.0523968 -0.17772433
-9.0381098 5.1957102 -0.136472
-5.4509354 5.1961946 -0.1807615
0.58768129 5.1589851 -0.147232
0.63303447 5.1200151 -0.12381899
0.70478702 5.1992002 -0.114485
1.8998201 5.1708097 -0.1562795
1.9488683 5.1787066 -0.15696535
2.0076151 5.1081147 -0.1556945
-5.445313 5.2662201 -0.15705301
0.74063033 5.2246618 -0.15459442
-5.4426136 5.3912506 -0.13371533
-5.4359298 5.488893 -0.13484067
-5.2465734 5.4349532 -0.164832
-5.1188235 5.405407 -0.16243868
-5.00951 5.4041634 -0.16079067
-10.19125 5.7292852 -0.1275375
2.9432302 -4.0071201 -0.03254135
2.9572349 -3.9375448 -0.032225002
2.967355 -3.8645749 -0.031886898
3.0482724 -3.8454452 -0.032072298
-1.8608401 -3.60271 -0.02653965
2.59325 -3.60254 -0.0387371
2.6003399 -3.61238 -0.019421101
-1.9242749 -3.5793226 -0.044361588
-1.85676 -3.594815 -0.061793
-1.7829975 -3.534735 -0.043205321
1.575932 -3.5761478 -0.05109296
1.77101 -3.5007601 -0.077042401
1.8575716 -3.5078199 -0.057713367
1.941865 -3.5160234 -0.052585151
2.0382521 -3.5246079 -0.053300697
2.145175 -3.5335355 -0.054117452
2.2518671 -3.5454252 -0.054983091
2.3570275 -3.5483046 -0.042456485
2.4376669 -3.5432668 -0.037532602
2.52285 -3.5702975 -0.042967975
10.079451 -3.5118899 -0.069860503
-3.4097524 -3.4584174 -0.052979976
-3.3043365 -3.4310167 -0.041555502
-3.2924199 -3.4186399 -0.082846597
1.647788 -3.484467 -0.050456822
1.7370424 -3.4968174 -0.044705927
1.81742 -3.4994199 -0.043017723
-3.4146113 -3.3581424 -0.052238774
-2.7395999 -3.3492 -0.01888
-2.6464901 -3.31388 -0.0185048
-2.4992502 -3.3284869 -0.072653934
-2.18065 -3.3197551 -0.02599645
1.5425916 -3.3921885 -0.056873586
9.9602804 -3.36361 -0.0458715
-3.4037225 -3.23843 -0.051239025
-2.7485299 -3.29513 -0.018723
-2.65468 -3.2453899 -0.036590401
-2.57528 -3.22471 -0.0360144
-2.1125734 -3.2613435 -0.033919834
-1.75299 -3.260735 -0.080780499
-2.6140399 -3.1956999 -0.054046899
-2.56971 -3.1792898 -0.062449649
-1.99875 -3.1073599 -0.0483661
0.49251598 -3.1283898 -0.020723399
0.56072599 -3.1391499 -0.027822936
-3.4489026 -3.0541875 -0.050254088
-3.308398 -3.076088 -0.04341466
-3.2820642 -3.0164762 -0.073890306
-3.1003399 -3.0197999 -0.094436601
-2.80217 -3.0235748 -0.0269782
-2.7467432 -3.0169885 -0.053391617
-2.6782351 -3.009835 -0.026347648
-2.5882299 -3.0365801 -0.0174096
-2.343034 -3.0546799 -0.030203322
-2.2475924 -3.048605 -0.028815974
-2.14466 -3.0421519 -0.029757885
-2.04863 -3.0545301 -0.024041649
-1.6920166 -3.0339236 -0.0303245
0.52467895 -3.0375051 -0.05380575
0.61381501 -3.06409 -0.0136353
2.03122 -3.0915401 -0.080715097
-4.8147025 -2.9067373 -0.061361622
-4.7090425 -2.9118574 -0.060370099
-4.6143274 -2.9148276 -0.059529126
-4.4972 -2.9151373 -0.058461227
-3.4445701 -2.956955 -0.049522147
-3.32512 -2.9798 -0.097425297
-3.0761299 -2.9267499 -0.092647798
-2.8291199 -2.9881401 -0.017955
-2.777194 -2.9584441 -0.06727764
-2.6386676 -2.9828598 -0.056464978
-2.2435701 -2.92258 -0.0643121
-1.8299334 -2.9402938 -0.020145301
-1.7440702 -2.9607704 -0.037479497
0.48790801 -2.91677 -0.064528398
0.54824698 -2.9737401 -0.0593176
1.91079 -2.9082501 -0.091122001
7.8730798 -2.91364 -0.036630001
7.9384999 -2.93785 -0.0738701
8.8657503 -2.9939899 -0.081662901
-5.7032099 -2.8259301 -0.027772499
-5.5852332 -2.842 -0.054688867
-5.4708166 -2.8501499 -0.053846769
-5.3463669 -2.8581533 -0.052907199
-5.2311468 -2.8686366 -0.052081101
-5.1209669 -2.8796136 -0.051263701
-5.0148101 -2.8835568 -0.0504754
-4.9119501 -2.8944874 -0.062204849
-3.4374599 -2.8381782 -0.0582982
-3.3720558 -2.82674 -0.057515454
-3.28545 -2.8203599 -0.094480298
-2.6912301 -2.84251 -0.068326198
-2.2785201 -2.8531098 -0.071689002
-2.1854434 -2.8053799 -0.064645275
-2.0527501 -2.80163 -0.075784899
-1.62717 -2.846405 -0.064341649
0.53814167 -2.8367069 -0.054430705
1.89539 -2.8124101 -0.059198599
1.9523 -2.83777 -0.060123499
7.9974799 -2.8727798 -0.055618752
8.8787346 -2.8933549 -0.061116502
-4.139255 -2.739835 -0.032458499
-4.0436502 -2.73896 -0.0213104
-3.9024301 -2.7167399 -0.0207475
-3.864835 -2.7397699 -0.072354004
-3.45508 -2.7792041 -0.058066126
-2.3332434 -2.7285018 -0.067983851
-2.2717037 -2.7516663 -0.072001778
-2.13783 -2.7848499 -0.091933399
-2.0035 -2.73441 -0.088766001
-1.73278 -2.76456 -0.042711399
-1.67418 -2.7288799 -0.055882599
-1.56715 -2.7477601 -0.069022298
-1.39843 -2.7074499 -0.066491798
0.52849799 -2.77617 -0.074002199
8.8942604 -2.78352 -0.081331298
8.921505 -2.7451649 -0.040729299
-3.97557 -2.63149 -0.0624112
-3.71189 -2.63135 -0.0198531
-3.6477015 -2.6587539 -0.051614452
-3.5467451 -2.6608951 -0.061255183
-3.4484425 -2.6723924 -0.054673012
-3.382 -2.6674099 -0.075167075
-2.3327675 -2.6842899 -0.054345705
-1.7333362 -2.6113925 -0.068344519
-1.6571001 -2.6396065 -0.058917236
-1.539685 -2.6630635 -0.076062277
-1.4470551 -2.6483231 -0.087809503
-1.34644 -2.6068001 -0.076829299
0.47767448 -2.679795 -0.089080751
0.51175952 -2.6882501 -0.089584604
1.96588 -2.6470051 -0.043162949
2.13713 -2.6120999 -0.0147262
8.8583298 -2.6792901 -0.0807641
-3.88943 -2.5744801 -0.081415497
-3.7262402 -2.5239635 -0.058915898
-3.5922468 -2.5160167 -0.044646136
-2.9272399 -2.5620201 -0.084881701
-1.8299884 -2.5485084 -0.061573915
-1.7766826 -2.5650272 -0.07052926
-1.6373625 -2.5619502 -0.07625258
-1.5545101 -2.5450318 -0.086774103
-1.32472 -2.5647399 -0.088195197
1.7374988 -2.5402901 -0.076689802
1.8281701 -2.5140648 -0.05425955
1.924175 -2.5337648 -0.048581399
8.6607304 -2.51912 -0.078713402
8.8856602 -2.5845399 -0.040378101
-3.65733 -2.42085 -0.095701903
-3.5662501 -2.4827001 -0.075848199
0.48823175 -2.4371972 -0.065265931
1.7314399 -2.4657569 -0.078896835
1.89337 -2.41221 -0.053526498
1.951375 -2.4619074 -0.044555575
2.010035 -2.4303751 -0.02067975
5.1216054 -2.4359584 -0.074245147
8.7079601 -2.4225299 -0.0788792
8.8363504 -2.45824 -0.040020298
-3.31955 -2.35322 -0.088786602
-1.23555 -2.3921101 -0.094019197
0.49647173 -2.3481374 -0.052414201
0.50911951 -2.3345919 -0.069462501
1.7397344 -2.341146 -0.076383844
1.8468399 -2.3221467 -0.0603812
1.9747841 -2.3314619 -0.02927118
2.0118799 -2.3095801 -0.0133648
4.9491301 -2.3538451 -0.023913149
5.1226768 -2.3367767 -0.073707037
8.7887497 -2.35444 -0.0794027
8.8324699 -2.3661499 -0.039898101
-1.1188101 -2.2179959 -0.075860605
-1.0434619 -2.215322 -0.055722203
-0.95258272 -2.2357216 -0.045846943
-0.85555393 -2.2564654 -0.018676179
-0.77409297 -2.24634 -0.0103672
0.5288046 -2.2543111 -0.046275191
1.7557601 -2.2368867 -0.086881541
1.8625267 -2.2277665 -0.050687633
1.9516749 -2.2404652 -0.032300949
4.9851027 -2.2260876 -0.059549823
5.5664701 -2.2028401 -0.078367397
8.834775 -2.276195 -0.059735499
-1.0804551 -2.19994 -0.016041599
-0.9120205 -2.1958499 -0.07783635
-0.86056697 -2.1896 -0.041065499
-0.77613097 -2.1766801 -0.020167001
0.5547139 -2.1418896 -0.057764243
0.90341598 -2.1045201 -0.089983501
1.7449715 -2.152967 -0.081228904
1.8553634 -2.1588902 -0.057919003
1.9519399 -2.19314 -0.0128107
4.9550843 -2.151556 -0.051829498
5.17062 -2.1747375 -0.061177298
5.3566737 -2.1794567 -0.050453603
5.54914 -2.1959801 -0.039060101
5.6709366 -2.1815166 -0.053025
8.7798796 -2.1526401 -0.039444301
8.9569597 -2.1556201 -0.060296148
9.0205097 -2.13029 -0.080886297
-0.83963799 -2.0522251 -0.067847453
-0.76624 -2.0855 -0.0290851
0.58023995 -2.0785131 -0.045512371
0.65039021 -2.0627716 -0.053824682
0.74225801 -2.0462487 -0.052335795
0.84851766 -2.0697742 -0.051704928
1.7686409 -2.0518284 -0.078437164
1.8197101 -2.04457 -0.035746001
8.9571705 -2.0047901 -0.060078051
-3.8874283 -1.9366181 -0.072035141
1.770138 -1.9486953 -0.068884671
1.8295813 -1.9579288 -0.035135198
1.9557643 -1.9586728 -0.056974187
8.9686451 -1.9172299 -0.060043149
10.61805 -1.9171951 -0.070619702
11.3301 -1.93375 -0.050151899
-3.8740978 -1.8456548 -0.056084376
-0.71835202 -1.88656 -0.0352364
-0.1741918 -1.831234 -0.011224112
1.786769 -1.8769827 -0.053386599
1.855108 -1.8275225 -0.040617086
1.9074 -1.8894 -0.035145599
9.0439396 -1.832785 -0.060396548
11.3728 -1.82898 -0.050260998
-3.9259794 -1.7478354 -0.056254234
-0.21874468 -1.7597067 -0.0077376002
-0.16979668 -1.7662801 -0.018095803
1.7825249 -1.7489575 -0.092662081
1.8525391 -1.7455127 -0.049566686
2.6780701 -1.72746 -0.027811499
2.754276 -1.7402401 -0.042590123
2.8300598 -1.7334263 -0.030715363
9.1880798 -1.750145 -0.061197199
-9.6462402 -1.64742 -0.0426993
-3.9521999 -1.635615 -0.055918563
-0.66912645 -1.658762 -0.056166079
-0.56807804 -1.620695 -0.018698601
-0.201106 -1.62655 -0.0143028
-0.16165236 -1.6370955 -0.027945712
0.28664401 -1.6081001 -0.071317703
1.7872925 -1.64952 -0.0902519
1.8254656 -1.6355178 -0.041111417
2.6338799 -1.66733 -0.068018802
2.7890601 -1.6431201 -0.049432851
2.8400698 -1.633449 -0.037206315
11.3835 -1.69409 -0.050217301
-9.6413851 -1.54105 -0.063902453
-4.3336163 -1.5249519 -0.044090081
-4.2879901 -1.5459701 -0.069555476
-3.9751999 -1.549158 -0.055805571
-0.61395228 -1.5310624 -0.059329547
-0.55034745 -1.5376822 -0.027829796
-0.48748001 -1.51341 -0.0069376598
-0.21563849 -1.5299056 -0.033796564
-0.15612519 -1.5592581 -0.038746584
-0.083992966 -1.5496428 -0.017182121
0.28781426 -1.5617925 -0.08665745
1.79719 -1.525975 -0.092633501
1.8309147 -1.5475577 -0.050823513
2.3922501 -1.5431 -0.037266102
2.5623701 -1.50957 -0.077876396
2.6263652 -1.545705 -0.073093757
2.8604748 -1.5489508 -0.04865307
2.9034867 -1.51618 -0.028579235
11.3893 -1.58347 -0.0501737
-9.6170902 -1.453215 -0.06365595
-4.3539953 -1.4376656 -0.055593245
-4.0151749 -1.4912751 -0.084112749
-3.98562 -1.4802901 -0.055656999
-0.61478502 -1.4802099 -0.083999202
-0.53982133 -1.4293998 -0.070186786
-0.45463675 -1.4246129 -0.0514955
-0.39058819 -1.410984 -0.019143594
-0.23358634 -1.4405081 -0.02411586
-0.16481763 -1.437632 -0.06730096
-0.069246821 -1.4435983 -0.027321983
0.014754152 -1.4074072 -0.010520452
0.19388101 -1.4177749 -0.0093505196
0.22649366 -1.4521445 -0.029207686
1.79406 -1.44595 -0.0905331
1.8385364 -1.4443953 -0.048402622
1.9006 -1.4056799 -0.0154722
2.3226833 -1.4648833 -0.059858233
2.653465 -1.4730351 -0.079473197
2.7475951 -1.451435 -0.081371054
2.8528249 -1.428215 -0.083543703
2.9576221 -1.4717001 -0.049189821
11.3947 -1.4606301 -0.050125699
-9.6116753 -1.3373649 -0.063520648
-4.3778825 -1.3475925 -0.049975913
-0.43600854 -1.3926909 -0.071976617
-0.34826326 -1.3593808 -0.05292571
-0.25442019 -1.3464997 -0.057902124
-0.13870774 -1.366837 -0.07513807
-0.055638205 -1.3400035 -0.052835997
0.054978404 -1.3198045 -0.038975891
0.15388732 -1.3394594 -0.034326427
0.2206305 -1.3513659 -0.062458437
1.8458236 -1.3776858 -0.070199698
1.942094 -1.368816 -0.050205369
2.0530517 -1.3659457 -0.052499957
2.1430631 -1.34333 -0.075667776
2.20175 -1.35466 -0.067693599
2.3527424 -1.337425 -0.082690649
11.4106 -1.33925 -0.050130099
-9.6035595 -1.232075 -0.063374504
-5.2275701 -1.28818 -0.0234921
-5.1276035 -1.2288435 -0.038305204
-5.0853148 -1.2272924 -0.079902232
-4.4183621 -1.248962 -0.044097941
-4.3930435 -1.2782967 -0.059909232
-0.31427649 -1.29495 -0.096090898
-0.29259652 -1.286195 -0.095130727
-0.026243808 -1.2847449 -0.077705897
0.045608446 -1.2823007 -0.064233772
0.14317165 -1.2841866 -0.076096252
0.20963116 -1.2842042 -0.090976447
1.8247975 -1.2479925 -0.096529722
1.9451051 -1.2415299 -0.090670548
2.1576321 -1.2409199 -0.086927645
2.2528701 -1.20407 -0.089203097
2.3413799 -1.2226501 -0.092239402
2.4411983 -1.2444184 -0.087711625
2.59658 -1.2519799 -0.088073097
2.6036 -1.2213449 -0.081585199
11.4968 -1.22533 -0.0504486
-9.608695 -1.1288049 -0.063322097
-5.0097852 -1.127455 -0.05598785
-4.9928102 -1.1236351 -0.055827502
-4.4608326 -1.1700587 -0.050308075
1.8511766 -1.16796 -0.095570073
1.96313 -1.182045 -0.094988346
2.0412149 -1.18777 -0.092790551
2.1605 -1.199325 -0.097089499
11.5627 -1.12033 -0.050688598
-9.7723198 -1.05312 -0.042886999
-9.5990496 -1.0344501 -0.084254697
-5.2089424 -1.00428 -0.057856929
-5.1623249 -1.046735 -0.0344459
-5.0296025 -1.04768 -0.056080025
-4.992475 -1.0678051 -0.077973753
-9.5758247 -0.93914449 -0.062979601
-5.2457342 -0.93731403 -0.055760801
11.575 -0.99715102 -0.050692901
-9.5697403 -0.82542849 -0.062870502
-5.2584496 -0.86911523 -0.081393354
11.5801 -0.88579899 -0.0506755
-9.5592699 -0.73224598 -0.062752701
11.5998 -0.76308399 -0.050723501
-9.5452404 -0.61873353 -0.062591299
11.5933 -0.63867402 -0.050662398
-9.5331955 -0.5363915 -0.062495299
11.6068 -0.55509824 -0.050702523
-9.5313358 -0.42428702 -0.062445104
11.6167 -0.4613125 -0.0507278
-9.5383101 -0.322808 -0.062469102
11.619 -0.33745801 -0.050719101
-0.054826614 -0.20991334 -0.091977112
-9.5757446 -0.140304 -0.062680699
-0.053041648 -0.13453664 -0.085907027
0.35005108 -0.12208193 -0.09481363
0.40649468 -0.14016202 -0.097944371
11.6394 -0.18914799 -0.050793301
-9.62323 -0.028198149 -0.062979601
-0.105069 -0.050812401 -0.073638797
-0.052204791 -0.038374119 -0.054975625
0.00097552582 -0.00018844004 -9.5209092e-05
0.296253 -0.054680776 -0.092258997
0.33422047 -0.042396858 -0.089962676
0.4171842 -0.081184909 -0.088872388
11.6556 -0.077621803 -0.050858699
-9.71455 0.064695001 -0.063588247
-0.10302367 0.045675837 -0.089641534
-0.041765384 0.016232755 -0.040825501
0.00094268698 0.0002840542 -0.00012069441
0.32569811 0.024514353 -0.09081661
11.6798 0.034224499 -0.050963499
-9.9684448 0.1619945 -0.0652529
-0.046551678 0.13600753 -0.091178961
0.023188567 0.15836567 -0.088719599
11.6466 0.170647 -0.0508238
-10.114 0.29374748 -0.06622155
-0.038903151 0.20896079 -0.09214142
-10.114651 0.38008147 -0.066247702
11.5673 0.39147499 -0.0505009
-10.115734 0.47369814 -0.0662819
8.1018801 0.45585799 -0.070815802
8.3527098 0.469971 -0.036503401
10.669649 0.47496098 -0.069875799
-10.1006 0.55644 -0.044139199
-10.0953 0.55614901 -0.088234
8.2764301 0.536488 -0.05428575
-10.08195 0.663234 -0.066129901
8.2780552 0.63410401 -0.054344699
-10.09025 0.77184105 -0.066234604
8.2945051 0.71543455 -0.054499552
-10.07545 0.86796653 -0.066188797
8.2971096 0.81373501 -0.036376901
8.311717 0.86889738 -0.060762972
8.3295202 0.97852999 -0.054892298
3.7732923 1.09796 -0.051423699
3.9607904 1.061516 -0.053640164
8.3508549 1.07136 -0.055103898
3.57304 1.19857 -0.098687097
3.67395 1.15452 -0.084030896
3.7787278 1.1604834 -0.047881134
3.9405701 1.10576 -0.053500522
8.3592701 1.163105 -0.055245649
-12.5491 1.2158999 -0.055012599
2.9626083 1.2837517 -0.063407078
3.0424628 1.2480181 -0.054578334
3.1460702 1.2258567 -0.051778268
3.2074199 1.230315 -0.037458301
3.3384266 1.22903 -0.062177535
3.4390049 1.22122 -0.063701302
3.5444574 1.255325 -0.028676376
3.6173482 1.22379 -0.049896598
3.720017 1.2714267 -0.034306701
3.9396677 1.2843001 -0.063261695
8.3776894 1.2659299 -0.055455096
-12.8143 1.36575 -0.056230001
2.1503701 1.39389 -0.083891496
2.324672 1.3727688 -0.056219589
2.4565301 1.3864567 -0.065676488
2.5383742 1.3849081 -0.065569922
2.6292117 1.3378518 -0.057916336
2.7700317 1.3151214 -0.053571861
2.847815 1.356565 -0.01376405
2.9625499 1.3556 -0.0142157
3.2123499 1.39197 -0.0152759
3.6405301 1.3521249 -0.050995149
8.3754797 1.3387201 -0.055514053
-1.4364421 1.446594 -0.092577808
-1.369204 1.4526221 -0.092343688
-1.2402178 1.4288399 -0.0945457
-1.19743 1.4743032 -0.093985304
-0.23676877 1.4795096 -0.055685733
-0.16282889 1.4635184 -0.053671744
2.0860445 1.4451964 -0.081562944
2.1357999 1.41031 -0.071145952
2.2682841 1.420628 -0.084118441
2.328285 1.47244 -0.057127774
2.49879 1.40511 -0.0375279
2.5511336 1.4219568 -0.021203235
2.62075 1.40105 -0.038902301
2.7196798 1.45393 -0.0201845
2.8308401 1.47479 -0.0139277
3.2344899 1.43856 -0.0154461
3.7774968 1.4029968 -0.052750733
8.3883448 1.432595 -0.05567985
-12.802 1.50256 -0.056243099
-1.368395 1.5615425 -0.090662897
-1.2475901 1.55651 -0.091427445
-1.1323016 1.5847754 -0.063421056
-1.0667509 1.5861599 -0.051510476
-0.93402207 1.5694226 -0.054224238
-0.5161705 1.5960701 -0.010982405
-0.44581735 1.5767654 -0.04760094
-0.34958446 1.5353452 -0.051609278
-0.27942282 1.5049891 -0.042701248
-0.12008584 1.5309117 -0.045828369
-0.095075369 1.5693024 -0.058014512
2.0967219 1.5444721 -0.081867337
2.1066151 1.5645649 -0.077272601
2.2671599 1.539185 -0.053815801
2.3394201 1.5846 -0.0493205
2.47891 1.5410925 -0.041392975
3.59073 1.597 -0.034295298
8.4278507 1.52266 -0.056050699
-12.7882 1.6392601 -0.056256101
-1.4464563 1.6503304 -0.047380548
-1.39981 1.6384 -0.094086997
-1.1561925 1.6094484 -0.048266217
-1.047956 1.6501642 -0.051178999
-0.91358626 1.626328 -0.040293023
-0.89024907 1.6672628 -0.066869229
-0.51807064 1.634148 -0.059891198
-0.48531631 1.6060301 -0.063829273
-0.063783012 1.6412615 -0.054380327
2.0907102 1.6493076 -0.087179773
2.1098101 1.6640249 -0.08795955
2.330415 1.63701 -0.055868648
2.5873301 1.6255401 -0.035568502
2.6774299 1.69131 -0.027636901
3.5053101 1.60396 -0.033640798
7.8697 1.68319 -0.070231199
8.2293348 1.668615 -0.054911904
8.4275894 1.624835 -0.056175098
-12.775 1.7761199 -0.056278002
-2.9158249 1.7556851 -0.051943198
-2.8832877 1.7645087 -0.058974467
-2.7081935 1.7880367 -0.070810668
-2.5858099 1.70723 -0.094669402
-1.423522 1.7025601 -0.05226177
-0.87160718 1.7497365 -0.050736278
-0.55625153 1.720005 -0.090821296
-0.017146165 1.7425869 -0.048437502
0.017737299 1.76149 -0.092320599
2.1048074 1.7511351 -0.089621693
2.2799001 1.76297 -0.075468101
2.4365699 1.76263 -0.0656192
2.6498201 1.7548625 -0.0345993
2.73158 1.7892749 -0.0142484
2.8178501 1.78001 -0.0145429
3.7297299 1.70665 -0.053693499
3.8734968 1.7227634 -0.073997736
7.66889 1.72589 -0.068599299
7.934495 1.741245 -0.035445347
-3.2456851 1.86584 -0.073493101
-3.1426482 1.8424259 -0.050826877
-3.0750401 1.8315051 -0.054677904
-2.8528676 1.8229599 -0.051715743
-2.7557399 1.8194301 -0.028816268
-0.83950984 1.8500595 -0.053193472
0.026202835 1.8362957 -0.052985925
2.1229999 1.8527321 -0.093439825
2.3183899 1.84664 -0.07761465
2.45541 1.8271635 -0.062290736
2.544445 1.821945 -0.054626048
2.6437669 1.82372 -0.032683533
3.7463901 1.84148 -0.030350935
3.8311634 1.8527899 -0.07429003
4.1140599 1.88252 -0.078972101
7.6548147 1.8475051 -0.068721451
7.9218102 1.8717099 -0.035517301
-12.7693 1.90031 -0.056330301
-2.8091526 1.94189 -0.037205976
-2.7966101 1.97759 -0.074737802
-0.81368065 1.9397677 -0.042021308
-0.79181653 1.9789768 -0.074447036
-0.658979 1.9728301 -0.0090756798
0.051074319 1.9165552 -0.044411227
2.1052001 1.92741 -0.099673003
2.2256701 1.99453 -0.091310203
2.33339 1.92659 -0.079237603
2.4675701 1.9081 -0.068062402
2.6433334 1.9540734 -0.047794037
2.746002 1.9703419 -0.029405681
2.840955 1.951055 -0.015038149
3.87591 1.9205101 -0.056625601
7.6721101 1.9687999 -0.069122903
7.9520402 1.95955 -0.035735499
-12.7619 2.0523801 -0.056400102
-2.861577 2.0485461 -0.047678012
-0.806409 2.0576 -0.0096429102
-0.78951901 2.0145001 -0.042404719
2.26179 2.07078 -0.093692198
2.39661 2.09759 -0.083399802
2.434315 2.0251451 -0.075964496
2.561058 2.0278921 -0.062676027
2.6651402 2.0308566 -0.03897807
2.84548 2.05843 -0.0153239
3.8469748 2.0041699 -0.0473192
3.9388499 2.0520301 -0.077523597
4.2241602 2.09307 -0.082288101
-12.7495 2.1760199 -0.056435
-2.8628781 2.1555893 -0.048974682
-2.7661686 2.1657224 -0.059356455
-0.81760281 2.146524 -0.080025703
2.34267 2.1864901 -0.0979065
2.45327 2.1517251 -0.08545465
2.6226001 2.1984799 -0.074672401
2.7457626 2.1655202 -0.038090974
2.86238 2.16505 -0.0156599
2.9414699 2.17114 -0.0159523
3.9798999 2.12764 -0.098472401
8.22153 2.1097901 -0.037035801
-12.7369 2.2997799 -0.056474298
-0.86182171 2.262615 -0.036882401
-0.74544799 2.2316999 -0.0205335
2.3482099 2.2604752 -0.099586099
2.4909749 2.2563701 -0.080689505
2.54356 2.2262101 -0.073756099
2.6417835 2.2383766 -0.065441474
2.7450199 2.20804 -0.030743601
2.8605101 2.2119401 -0.0157777
-0.84044003 2.3503368 -0.052933477
-0.78061706 2.3369899 -0.064635262
2.53736 2.3682001 -0.090886399
2.66643 2.3895199 -0.062497102
2.7539887 2.3607452 -0.050053522
2.83003 2.37237 -0.032227099
2.9351401 2.3378649 -0.016373299
-12.7339 2.42556 -0.0565616
2.4970601 2.4321899 -0.091279
2.56583 2.417695 -0.084555052
2.6231899 2.4486899 -0.078304552
2.7358601 2.45174 -0.048091199
2.9505351 2.4549551 -0.033271801
-12.7056 2.5748301 -0.056565899
2.5552001 2.53702 -0.0942894
2.8045299 2.5676799 -0.0663715
2.9692099 2.5987501 -0.0344349
3.01229 2.58587 -0.0173223
2.5888951 2.6569252 -0.097142652
2.67536 2.6563301 -0.082263902
2.7794001 2.6444299 -0.066964902
2.8378861 2.628346 -0.047224581
2.966145 2.6581049 -0.0260248
3.1522751 2.60271 -0.02675565
-12.7058 2.71613 -0.0566925
-9.1666546 2.7725401 -0.062680699
-3.2665918 2.7436681 -0.055851359
2.65768 2.7595749 -0.07512705
2.7849998 2.7389998 -0.076643199
2.8714132 2.7534332 -0.052075934
2.9607649 2.736825 -0.0175929
-12.6801 2.8380699 -0.056696799
-9.1205597 2.8543501 -0.0625498
-3.312598 2.8430498 -0.057094861
-3.29761 2.8917699 -0.095701903
2.5558774 2.8447773 -0.075032003
2.62747 2.8350701 -0.0674095
2.8988199 2.8235199 -0.052973598
-12.6713 2.99247 -0.056810301
-3.3233602 2.9257202 -0.05795176
2.94803 2.9901099 -0.091622502
-9.2647448 3.01914 -0.063782446
-3.38555 3.0268099 -0.079268798
3.0540934 3.0563533 -0.056580134
-12.6687 3.1060801 -0.056915
-9.3698997 3.1642399 -0.06467475
-3.5288999 3.1549699 -0.061966099
2.9838099 3.15154 -0.094698399
3.00125 3.16996 -0.0761972
3.1944599 3.1717401 -0.058929399
-12.6527 3.25984 -0.057011001
-9.3915348 3.2722049 -0.06508705
3.1596818 3.2644916 -0.039629132
3.26669 3.2434502 -0.03012195
3.35391 3.2285948 -0.020313349
-12.6189 3.3805101 -0.057002299
-9.2914944 3.33761 -0.064618051
-3.6930699 3.3017399 -0.043231301
-2.774905 3.3916249 -0.086043403
3.1377649 3.3141451 -0.029870998
-12.2507 3.4080901 -0.055483799
-11.8901 3.4584401 -0.054030899
-9.2421799 3.42031 -0.064500198
-2.81586 3.44169 -0.0388069
-2.7644134 3.4281902 -0.076865703
0.53848767 3.4466865 -0.0532072
0.72367489 3.4245319 -0.053388983
-9.1794901 3.5311949 -0.06438455
0.59323525 3.5487499 -0.03932865
0.62831938 3.5824978 -0.063547947
-9.1586895 3.6243949 -0.064471848
-7.90061 3.6039701 -0.056836098
-7.8870001 3.69979 -0.076025598
-9.1503754 3.72299 -0.064655095
-7.8744001 3.7623568 -0.050800301
-4.13167 3.765785 -0.085380152
2.8585227 3.7648749 -0.051533598
2.9566867 3.7566803 -0.076468199
3.0556445 3.7739801 -0.048371118
3.1595602 3.7529058 -0.058024645
3.2339718 3.735724 -0.047442779
-9.15312 3.8497548 -0.064991102
0.19692461 3.8916118 -0.051013567
0.26320323 3.8867352 -0.050980389
2.8523834 3.8929832 -0.042124167
2.971765 3.8036098 -0.031587951
-9.1863403 3.9678299 -0.0873264
0.15348983 3.9177816 -0.045509603
2.8619201 3.9060099 -0.084522001
-9.1926603 4.0756001 -0.087754004
2.9159851 4.0609074 -0.054478724
2.5397348 4.1894798 -0.085516796
0.3532798 4.2711682 -0.056015421
2.16803 4.2980399 -0.031511601
2.259985 4.2927785 -0.059962284
2.3599949 4.2850499 -0.053362839
2.4556718 4.266798 -0.060856737
2.535212 4.2698379 -0.0390127
2.6402688 4.2510161 -0.049926929
2.7576265 4.2421803 -0.055196464
2.8426325 4.2383928 -0.055669844
2.93167 4.2188501 -0.05603639
-8.5876751 4.3570948 -0.063034147
1.9615974 4.3270397 -0.051832452
2.0365088 4.3136387 -0.052040249
2.1342835 4.3068652 -0.059445255
2.221535 4.3010397 -0.031684
4.9287601 4.3138199 -0.028579701
0.43695211 4.4740114 -0.054456379
1.9563825 4.4279699 -0.052816346
0.46921 4.5025401 -0.098777801
0.61116999 4.5085902 -0.039705701
0.86083871 4.5509672 -0.05056715
1.9553876 4.5698752 -0.054239847
0.63276803 4.6679168 -0.054852232
0.93858802 4.6879201 -0.020861
-3.5551767 4.733707 -0.051625833
-3.4603367 4.7111402 -0.05098737
0.95087707 4.7493 -0.063405603
1.0674651 4.79811 -0.075072244
1.1389037 4.7928839 -0.053730968
1.2381825 4.7783732 -0.053843863
1.3431451 4.7630849 -0.053981323
1.4470823 4.7423449 -0.054075677
1.5492126 4.7316761 -0.054300927
1.6275775 4.7230749 -0.054456905
1.9683375 4.7391253 -0.055975296
-4.0013399 4.8906298 -0.027571799
-3.9040766 4.8768735 -0.054517236
-3.8186433 4.8650541 -0.053973269
-3.7219303 4.8473034 -0.053333335
1.068435 4.8024702 -0.032201052
1.7437099 4.8902798 -0.067957833
-5.5502 4.96209 -0.0324848
1.74878 4.9045 -0.0227198
1.9807875 4.9163427 -0.057834022
4.3998499 4.9446101 -0.057760902
4.4584866 4.9463172 -0.038762003
4.572525 4.9337997 -0.044027701
-5.5052299 5.017705 -0.04875315
-5.4632502 5.09794 -0.097818501
2.0037351 5.0982451 -0.035855249
-12.0178 5.1907902 -0.0571201
-9.0352001 5.1940403 -0.068219952
-5.4654837 5.1366301 -0.043611072
0.586043 5.1446075 -0.056571972
0.63633275 5.1466928 -0.056563228
1.9399413 5.1857834 -0.060395215
2.00665 5.10567 -0.083794199
-5.4537539 5.2593102 -0.072710656
0.77570999 5.2976899 -0.093457602
-11.983 5.3126898 -0.0571943
-5.4461899 5.3947897 -0.05017335
0.77651805 5.3032131 -0.046773903
-5.43713 5.4901099 -0.0505726
-5.2543306 5.4429932 -0.066018738
-5.1205335 5.4072132 -0.064996302
-5.0062065 5.4006 -0.064266168
-10.1909 5.7290902 -0.051011398
10.432051 -4.3876696 0.074075446
10.9711 -4.34161 0.0514827
10.51285 -4.2773499 0.074284896
2.9410021 -4.0040817 0.043346483
9.4003658 -4.0602703 0.067019999
2.9571981 -3.9374962 0.0429634
3.6208601 -3.90611 0.092969
2.9674401 -3.8646839 0.042507879
3.0605133 -3.860733 0.042978678
3.1662202 -3.8699098 0.043619622
3.236264 -3.8706281 0.044014063
11.2042 -3.7837 0.051600501
-1.8608201 -3.6026773 0.0265394
-1.7763866 -3.6169567 0.052750733
0.37743399 -3.61812 0.095257901
2.5992699 -3.6108949 0.087369695
2.6055326 -3.6195977 0.029190075
11.0986 -3.61674 7.1474101e-16
11.1926 -3.6473801 0.051364899
-1.907284 -3.5888321 0.035454381
-1.8336051 -3.59198 0.079197749
-1.7676001 -3.5228963 0.037846562
0.406248 -3.52948 0.093032897
1.5747918 -3.5735586 0.042528033
1.86112 -3.50107 2.4277801e-16
1.939154 -3.5111065 0.043747123
2.0383825 -3.5248077 0.044413604
2.1429908 -3.5299354 0.045045897
2.2492595 -3.5413244 0.04575346
2.3597152 -3.545902 0.046451904
2.4489551 -3.5412951 0.056429949
2.5030227 -3.56457 0.028499575
10.079651 -3.51196 0.023287
11.2227 -3.5122252 0.0256628
-3.4126098 -3.4613178 0.042427599
-3.3138139 -3.4408643 0.041726001
1.64647 -3.4816806 0.041997533
1.7417707 -3.4934595 0.042578541
1.8347491 -3.4953954 0.046981227
11.2505 -3.4028299 0.051286299
-3.4157829 -3.3592961 0.041817632
-2.7504826 -3.3299444 0.047134724
-2.6563718 -3.3262582 0.046473734
-2.1780226 -3.3157549 0.025935125
-1.75615 -3.30444 0.081653103
1.5404034 -3.3873749 0.040545698
10.0153 -3.3822 6.47266e-16
-3.4097822 -3.2441978 0.041071516
-2.1407335 -3.2815969 0.051505603
-2.091645 -3.25179 0.02530485
0.43672851 -3.2061677 0.091797248
0.5371002 -3.2071216 0.085165672
0.63680619 -3.207164 0.085623607
11.2285 -3.26601 0.0510245
-3.3560822 -3.13234 0.040273063
-2.0434933 -3.1769302 0.06593477
-1.7081829 -3.1411331 0.046888903
-1.66589 -3.1346099 0.0929543
0.45168775 -3.1747363 0.047401123
0.5459314 -3.1711276 0.03818772
0.63060158 -3.176024 0.046744153
-3.4511311 -3.0562203 0.040241212
-3.3257859 -3.044914 0.039465021
-2.8377306 -3.0322735 0.049489241
-2.7336388 -3.0366471 0.051722463
-2.6401811 -3.0529666 0.039056182
-2.3556623 -3.06497 0.046389144
-2.2451611 -3.0669417 0.051070809
-2.1452949 -3.0644283 0.043529261
-2.0600414 -3.071543 0.048470158
-1.6868014 -3.0245745 0.04534439
-1.0245386 -3.0792401 0.049423337
-0.98558879 -3.0737314 0.061642576
0.64018351 -3.036875 0.0470904
-4.809957 -2.9038701 0.057225537
-4.7067285 -2.9104259 0.048291724
-4.6165481 -2.9162319 0.047660802
-4.5043068 -2.9197469 0.070277601
-4.4960299 -2.9143801 0.01169585
-3.4405985 -2.9535451 0.049425386
-2.8380799 -2.9976101 2.52759e-16
-1.8276702 -2.9470966 0.045410745
-1.7347606 -2.9653907 0.044941101
7.7542467 -2.9829299 0.036270499
-5.9762301 -2.80422 0.086417504
-5.8297668 -2.8193402 0.056512669
-5.7059827 -2.8273048 0.041680951
-5.5743799 -2.8364725 0.040916301
-5.4582396 -2.8436 0.040286876
-5.3465023 -2.8582225 0.039681472
-5.2171025 -2.860935 0.038928825
-5.1183376 -2.878135 0.038403049
-5.0135674 -2.8828452 0.037841301
-4.9122362 -2.8946559 0.049722861
-4.7990952 -2.897315 0.03669085
-4.0312204 -2.8063965 0.064324766
-3.9647601 -2.8106098 0.074234545
-3.433661 -2.8522882 0.056518387
-3.38573 -2.8382001 0.0096407495
-0.98254049 -2.8512349 0.0855553
0.59983897 -2.8370299 0.037959799
7.8270769 -2.8966136 0.036394134
7.9213133 -2.8454235 0.036682099
-9.4007301 -2.73544 0.0854415
-6.8557501 -2.7138901 0.096522696
-6.7951398 -2.7655699 0.096038401
-6.6433702 -2.7950001 0.094349802
-6.1083102 -2.7950499 0.087935902
-4.1503439 -2.7709365 0.051683471
-4.0674467 -2.7802935 0.014317467
-3.9500699 -2.7499001 2.9470201e-16
-3.8986001 -2.7637 0.0417041
-3.7604899 -2.72036 0.081014097
-3.6327801 -2.7477601 0.099388599
-3.5646124 -2.7111149 0.058629099
-3.4577441 -2.7338612 0.048096202
-0.96218401 -2.79216 0.064441197
8.9744797 -2.7144201 5.74095e-16
-9.3783903 -2.63166 0.085005201
-3.711905 -2.6313601 0.0099265501
-3.6427681 -2.667239 0.041380558
-3.5648999 -2.696425 0.0292945
-3.4902301 -2.69889 2.70148e-16
-0.90200198 -2.6175201 0.048325699
0.56904697 -2.6914001 0.0240067
8.9884901 -2.61445 5.7317698e-16
-9.6434345 -2.5844998 0.065344498
-7.0554848 -2.467555 0.081537798
-6.9035649 -2.4889798 0.080056444
-6.8333802 -2.46367 0.031695101
-0.8523615 -2.4309649 0.06209565
4.9898329 -2.4355927 0.084802046
5.000905 -2.4112649 0.036337398
8.8817101 -2.47086 5.6448203e-16
8.9346104 -2.48558 0.040465299
-13.1037 -2.36745 0.058101799
-7.1015401 -2.3150499 0.097779296
-7.0482936 -2.3420067 0.075601868
-0.82343602 -2.3268566 0.037200604
0.51311338 -2.3600819 0.033606242
1.9695181 -2.3201702 0.051711984
2.0146224 -2.3127251 0.020056751
4.9811301 -2.3473802 0.040145669
8.859457 -2.3733802 0.040020034
-7.2803402 -2.2878101 0.099899799
-1.0286171 -2.2109773 0.042148281
-0.94241458 -2.2336917 0.047591396
-0.86442757 -2.2773845 0.046317223
-0.78811002 -2.28702 1.4811601e-16
0.5304814 -2.237901 0.042535756
1.99384 -2.2402201 1.8363001e-16
2.0248523 -2.2751346 0.054166395
4.9730301 -2.2685101 3.3468501e-16
5.0181599 -2.2891002 0.060174853
5.1496749 -2.2831249 0.061431479
5.2468152 -2.2662349 0.08728905
8.8175735 -2.2717633 0.039716035
-7.2032599 -2.17116 0.098486103
-1.0526767 -2.1963801 0.042522531
0.57046854 -2.1641126 0.04766012
0.60242552 -2.1663551 0.093278348
4.9548602 -2.1967499 3.3186801e-16
5.0482302 -2.18046 3.36706e-16
5.19242 -2.1839001 3.4490999e-16
5.3806901 -2.18923 3.55687e-16
5.5576401 -2.1993401 3.6597401e-16
8.7814398 -2.1530201 0.039458603
8.9274302 -2.10831 5.6166601e-16
11.331249 -2.15837 0.0251654
-0.6149438 -2.0231669 0.0510532
-0.56324911 -2.0223763 0.059600197
-0.48178858 -2.0272498 0.081889898
-0.14818767 -2.0276496 0.065006018
0.5867945 -2.0606461 0.038511429
0.65259564 -2.0331316 0.048669159
0.75416958 -2.028403 0.046561498
0.85146308 -2.0480528 0.045837861
1.82719 -2.00945 0.0118507
8.8634758 -2.093205 0.059585001
8.9588671 -2.0051732 0.040059268
11.279551 -2.0366399 0.025006151
-0.60561001 -1.9511499 0.0089142397
-0.54027092 -1.9691244 0.069625095
-0.46559668 -1.9591321 0.06327837
-0.22067176 -1.9335587 0.049547207
-0.17242566 -1.9828641 0.041898247
1.8230209 -1.9440811 0.022217965
8.96595 -1.9166567 0.040015668
11.33895 -1.935275 0.025093401
-3.930016 -1.846122 0.018968901
-0.51306552 -1.8924201 0.029928949
-0.41022599 -1.8439 0.061867252
-0.35592023 -1.8294394 0.076112524
-0.26882496 -1.8723831 0.052566044
-0.15786938 -1.853756 0.00162577
1.79535 -1.85981 0.0056396001
1.8263689 -1.8377246 0.03677129
2.79936 -1.8056901 0.072687201
2.8282351 -1.8072 0.08788915
9.0655737 -1.8371667 0.040377803
11.3842 -1.830815 0.0251654
-3.9480481 -1.7478809 0.02452362
-0.43042901 -1.70215 0.030646401
-0.3324216 -1.7878171 0.066987649
-0.29290974 -1.7833257 0.050899502
-0.1065515 -1.7086401 0.011215835
-0.084292524 -1.7320141 0.05444764
1.8339312 -1.7544593 0.049869936
2.61834 -1.7287101 0.095860399
2.7575119 -1.7787001 0.028715882
2.8522918 -1.7529958 0.043246936
2.9000001 -1.70848 0.088137798
-9.6461811 -1.6474133 0.042699069
-4.0576501 -1.65143 0.038231
-3.9798501 -1.652482 0.01506906
-0.48438999 -1.6867599 0.0153151
-0.3655695 -1.645305 0.040363301
-0.2668055 -1.65035 0.0255135
-0.10226 -1.63981 1.00601e-16
-0.071725003 -1.6425815 0.049239289
0.07522615 -1.6014249 0.094544098
0.134764 -1.60637 0.056292899
1.834778 -1.6404823 0.048585311
1.9436779 -1.6326201 0.093077421
2.25863 -1.62988 0.097264901
2.8442359 -1.6386863 0.035901692
11.374201 -1.692695 0.025082501
-9.9548903 -1.5042599 0.0439298
-9.7156248 -1.55292 0.0214653
-9.6955605 -1.54971 0.085685901
-4.3381166 -1.53277 0.0066947667
-4.0296001 -1.59514 0.037820801
-3.9868965 -1.5619234 0.0062424336
-0.45225677 -1.5329421 0.0082866503
-0.310469 -1.55068 0.041411899
-0.041346867 -1.5538764 0.055696223
0.04823583 -1.5579306 0.07749968
0.12044714 -1.5646087 0.052033942
1.8329904 -1.5397491 0.036614653
1.975708 -1.5633459 0.092385545
2.0251467 -1.5290534 0.092298642
2.1844001 -1.54467 0.093425997
2.8585966 -1.5614265 0.037586093
2.9254434 -1.5288422 0.058809288
11.3894 -1.58348 0.02508685
-9.6188002 -1.45347 5.9564897e-16
-5.830102 -1.4603781 0.057695042
-5.7792149 -1.48305 0.0130201
-4.3542476 -1.4400225 0.01000615
-0.42510176 -1.47699 0.0033564749
-0.34492207 -1.4346178 0.015441977
-0.26847246 -1.4380484 0.014094461
-0.029597489 -1.4412501 0.017351873
0.031081222 -1.4466795 0.035784233
0.16041914 -1.430855 0.020032687
0.215882 -1.4732701 9.11719e-17
1.8453164 -1.4403777 0.040545244
1.90065 -1.40572 1.44748e-16
2.17747 -1.47457 0.0803468
2.9484243 -1.4790015 0.018505802
11.398149 -1.46108 0.02507375
-9.6272106 -1.339525 0.021244951
-5.864707 -1.3637035 0.070068903
-5.7944002 -1.36906 0.0259791
-5.6742601 -1.39826 3.5783e-16
-4.3798637 -1.3482485 0.020013634
-0.33803284 -1.3799032 0.0010479217
-0.295452 -1.39812 8.74981e-17
-0.014018075 -1.3921349 0.0091355126
0.067581527 -1.3414083 0.012538458
0.12804134 -1.3629607 0.011317098
1.8632641 -1.394623 0.02539568
1.9417117 -1.3731818 0.034775272
2.0571516 -1.3799356 0.033177495
2.10144 -1.38744 0.065939702
11.4161 -1.339895 0.025082501
-9.6300249 -1.2354701 0.021242751
-5.9299498 -1.2023849 0.066004701
-5.8961301 -1.26108 0.078930303
-5.73914 -1.2593651 0.051277101
-5.1852298 -1.22513 3.26235e-16
-4.4192452 -1.2629676 0.0100378
11.50875 -1.2266049 0.02525045
-9.617815 -1.1298749 0.0211468
-5.1101398 -1.15004 0.022855001
-5.0487299 -1.13622 3.1686701e-16
-4.46348 -1.1962399 2.82945e-16
11.55385 -1.11947 0.02532245
-9.9453697 -1.07177 0.0218667
-5.3415799 -1.02985 0.023736401
-5.26229 -1.0495234 0.0078467
-5.0390053 -1.077755 0.0112835
-9.5818777 -0.93973768 0.042038769
-5.3267598 -0.962385 3.3144e-16
11.562651 -0.99608254 0.025307201
-9.5650005 -0.82501972 0.041890435
11.57715 -0.885575 0.025331199
-9.5495377 -0.73150098 0.041801702
11.59735 -0.76292396 0.02535085
-9.5488071 -0.61896467 0.041742068
11.59585 -0.63881451 0.02533775
-9.537097 -0.53661102 0.041694067
